-0.020958 0.025343 -0.023673 
-0.021063 0.026683 -0.032438 
-0.021174 0.028405 -0.041170 
-0.021294 0.030507 -0.049768 
-0.018313 0.016236 -0.053720 
-0.018210 0.014078 -0.044566 
-0.019499 0.018207 0.035971 
-0.019546 0.017100 0.028207 
-0.018612 0.013737 0.028920 
-0.018567 0.014881 0.036836 
-0.020214 0.022028 0.034974 
-0.020262 0.020964 0.027385 
-0.019579 0.016225 0.019924 
-0.018643 0.012829 0.020455 
-0.020296 0.020125 0.019313 
-0.018493 0.016183 0.044043 
-0.017629 0.012295 0.037500 
-0.017558 0.013628 0.044794 
-0.019421 0.019470 0.043065 
-0.020132 0.023246 0.041937 
-0.020416 0.027265 0.040732 
-0.020499 0.026095 0.033910 
-0.020548 0.025077 0.026508 
-0.020582 0.024279 0.018661 
-0.020623 0.023770 0.010504 
-0.020336 0.019585 0.010902 
-0.019617 0.015654 0.011276 
-0.018680 0.012232 0.011601 
-0.017736 0.009574 0.011851 
-0.017701 0.010190 0.020864 
-0.017671 0.011123 0.029469 
-0.018808 0.023872 0.060228 
-0.019095 0.022292 0.055055 
-0.018182 0.019090 0.056139 
-0.017909 0.020725 0.061321 
-0.019497 0.027487 0.058967 
-0.019794 0.025970 0.053803 
-0.019293 0.020831 0.049389 
-0.018371 0.017583 0.050438 
-0.019999 0.024560 0.048178 
-0.017534 0.022514 0.066159 
-0.017004 0.018279 0.062162 
-0.016648 0.020124 0.066996 
-0.018414 0.025590 0.065074 
-0.019089 0.029123 0.063823 
-0.019358 0.032886 0.062491 
-0.019772 0.031335 0.057622 
-0.020073 0.029886 0.052468 
-0.020281 0.028531 0.046886 
-0.017442 0.015059 0.051243 
-0.017263 0.016600 0.056972 
-0.020510 0.043807 -0.063126 
-0.020565 0.046747 -0.070320 
-0.021316 0.042955 -0.071999 
-0.021261 0.039936 -0.064597 
-0.019530 0.047180 -0.061849 
-0.019585 0.050052 -0.068863 
-0.020461 0.049785 -0.077084 
-0.021201 0.046104 -0.078942 
-0.019491 0.052993 -0.075471 
-0.021130 0.037158 -0.056779 
-0.020383 0.041080 -0.055510 
-0.019409 0.044497 -0.054408 
-0.018428 0.047159 -0.053555 
-0.018544 0.049807 -0.060861 
-0.018597 0.052627 -0.067736 
-0.018513 0.055494 -0.074223 
-0.018216 0.058279 -0.080363 
-0.019168 0.055881 -0.081692 
-0.020110 0.052803 -0.083409 
-0.020824 0.049272 -0.085385 
-0.020475 0.028032 -0.006195 
-0.019751 0.031996 -0.006055 
-0.019840 0.032584 -0.014165 
-0.020567 0.028614 -0.014551 
-0.020396 0.027816 0.002027 
-0.019675 0.031768 0.001908 
-0.018807 0.035449 -0.005933 
-0.018892 0.036043 -0.013829 
-0.018735 0.035211 0.001805 
-0.020857 0.024388 -0.014962 
-0.020667 0.029572 -0.023030 
-0.020763 0.023813 -0.006344 
-0.020683 0.023609 0.002154 
-0.020336 0.027955 0.010105 
-0.019617 0.031888 0.009731 
-0.018680 0.035314 0.009406 
-0.017736 0.037980 0.009155 
-0.017788 0.037891 0.001726 
-0.017857 0.038137 -0.005839 
-0.017938 0.038735 -0.013568 
-0.018025 0.039700 -0.021493 
-0.018984 0.037006 -0.021901 
-0.019937 0.033545 -0.022426 
-0.019499 0.033985 0.031848 
-0.019546 0.033055 0.024808 
-0.020262 0.029190 0.025631 
-0.020214 0.030163 0.032846 
-0.018567 0.037315 0.030984 
-0.018612 0.036422 0.024095 
-0.019579 0.032335 0.017397 
-0.020296 0.028432 0.018008 
-0.018643 0.035735 0.016866 
-0.020132 0.031285 0.039528 
-0.019421 0.035062 0.038399 
-0.018493 0.038354 0.037421 
-0.017558 0.040917 0.036669 
-0.017629 0.039909 0.030318 
-0.017671 0.039044 0.023546 
-0.017701 0.038382 0.016456 
-0.008442 0.047398 0.093668 
-0.008144 0.048948 0.093078 
-0.009420 0.048812 0.091193 
-0.009765 0.047017 0.091869 
-0.007227 0.047675 0.095204 
-0.006973 0.049001 0.094690 
-0.007755 0.050300 0.092566 
-0.008970 0.050377 0.090607 
-0.006641 0.050156 0.094241 
-0.009902 0.045107 0.092591 
-0.011132 0.046494 0.089807 
-0.011289 0.044315 0.090625 
-0.008560 0.045748 0.094296 
-0.007328 0.046263 0.095748 
-0.006269 0.046681 0.096949 
-0.006186 0.047887 0.096476 
-0.005970 0.049019 0.096021 
-0.005688 0.050006 0.095619 
-0.005403 0.050775 0.095308 
-0.006307 0.051056 0.093896 
-0.007363 0.051353 0.092173 
-0.008516 0.051596 0.090157 
-0.009709 0.051718 0.087865 
-0.010226 0.050327 0.088375 
-0.010739 0.048542 0.089040 
0.003241 0.045602 0.100358 
0.003322 0.046323 0.100349 
0.003055 0.046340 0.100463 
0.002979 0.045580 0.100459 
0.003460 0.045590 0.100239 
0.003549 0.046265 0.100209 
0.003427 0.047073 0.100236 
0.003151 0.047115 0.100360 
0.003660 0.047000 0.100080 
0.002986 0.044853 0.100357 
0.002617 0.045535 0.100575 
0.002623 0.044769 0.100457 
0.003246 0.044919 0.100272 
0.003457 0.044986 0.100177 
0.003618 0.045049 0.100081 
0.003680 0.045484 0.100076 
0.003794 0.046128 0.100005 
0.003916 0.046872 0.099845 
0.003984 0.047659 0.099589 
0.003725 0.047761 0.099843 
0.003488 0.047831 0.100009 
0.003209 0.047889 0.100138 
0.002818 0.047956 0.100279 
0.002768 0.047150 0.100498 
0.002683 0.046336 0.100593 
-0.003148 0.049334 0.099342 
-0.003412 0.049257 0.099229 
-0.003486 0.048568 0.099660 
-0.003215 0.048634 0.099784 
-0.003093 0.049953 0.098828 
-0.003352 0.049858 0.098740 
-0.003630 0.049193 0.099081 
-0.003711 0.048507 0.099495 
-0.003561 0.049769 0.098634 
-0.002830 0.048724 0.099920 
-0.003239 0.047884 0.100127 
-0.002851 0.047950 0.100268 
-0.002771 0.049442 0.099466 
-0.002723 0.050075 0.098935 
-0.002736 0.050597 0.098356 
-0.003108 0.050461 0.098271 
-0.003366 0.050343 0.098214 
-0.003566 0.050208 0.098174 
-0.003715 0.050073 0.098147 
-0.003767 0.049717 0.098443 
-0.003862 0.049143 0.098839 
-0.003957 0.048435 0.099238 
-0.003992 0.047657 0.099586 
-0.003740 0.047759 0.099837 
-0.003512 0.047827 0.100001 
0.010135 0.048216 0.046950 
0.007083 0.049181 0.046903 
0.006977 0.050307 0.052024 
0.009983 0.049356 0.052069 
0.010240 0.047108 0.041534 
0.007156 0.048084 0.041484 
0.003628 0.049943 0.046867 
0.003574 0.051058 0.051988 
0.003666 0.048853 0.041444 
0.012400 0.048455 0.052111 
0.009773 0.050507 0.056990 
0.012140 0.049624 0.057032 
0.012589 0.047301 0.046994 
0.012720 0.046184 0.041581 
0.012804 0.045126 0.035772 
0.010308 0.046056 0.035719 
0.007204 0.047038 0.035663 
0.003690 0.047812 0.035619 
-0.000036 0.048120 0.035602 
-0.000036 0.049159 0.041429 
-0.000035 0.050246 0.046852 
-0.000035 0.051357 0.051974 
-0.000034 0.052465 0.056898 
0.003499 0.052173 0.056912 
0.006830 0.051438 0.056946 
0.015906 0.041230 0.016045 
0.015879 0.041869 0.023000 
0.016786 0.040796 0.023193 
0.016814 0.040149 0.016192 
0.014688 0.041967 0.015967 
0.014663 0.042603 0.022905 
0.015841 0.042706 0.029665 
0.016746 0.041642 0.029894 
0.014628 0.043436 0.029559 
0.016847 0.039760 0.008993 
0.015937 0.040847 0.008901 
0.014717 0.041587 0.008850 
0.012934 0.042308 0.008813 
0.012908 0.042688 0.015915 
0.012886 0.043323 0.022848 
0.012856 0.044155 0.029503 
0.014569 0.044410 0.035824 
0.015778 0.043684 0.035937 
0.016679 0.042631 0.036192 
0.007359 0.045025 -0.012989 
0.007327 0.044415 -0.005608 
0.010483 0.043427 -0.005645 
0.010530 0.044035 -0.013076 
0.003770 0.045806 -0.012921 
0.003753 0.045194 -0.005578 
0.007298 0.044156 0.001603 
0.010443 0.043169 0.001614 
0.003738 0.044934 0.001594 
0.010582 0.045011 -0.020745 
0.013081 0.043096 -0.013159 
0.013144 0.044069 -0.020865 
0.007395 0.046005 -0.020618 
0.003788 0.046789 -0.020518 
-0.000037 0.047101 -0.020478 
-0.000037 0.046117 -0.012893 
-0.000037 0.045505 -0.005566 
-0.000036 0.045244 0.001591 
-0.000036 0.045317 0.008666 
0.003727 0.045007 0.008681 
0.007277 0.044229 0.008719 
0.010412 0.043243 0.008767 
0.012972 0.042234 0.001624 
0.013022 0.042491 -0.005681 
-0.016756 0.058163 -0.072959 
-0.016828 0.055373 -0.066598 
-0.015579 0.056100 -0.066367 
-0.015514 0.058875 -0.072699 
-0.017665 0.057142 -0.073419 
-0.017742 0.054324 -0.067011 
-0.016777 0.052603 -0.059863 
-0.015533 0.053339 -0.059662 
-0.017690 0.051536 -0.060225 
-0.015274 0.061527 -0.078726 
-0.013664 0.059594 -0.072495 
-0.013453 0.062222 -0.078495 
-0.016496 0.060842 -0.079011 
-0.017387 0.059861 -0.079505 
-0.017580 0.048910 -0.053006 
-0.016673 0.049987 -0.052692 
-0.015436 0.050726 -0.052516 
-0.013596 0.051461 -0.052378 
-0.013681 0.054075 -0.059507 
-0.013722 0.056832 -0.066190 
0.007652 0.037372 0.095558 
0.006614 0.039057 0.096845 
0.006107 0.038802 0.096958 
0.007066 0.037084 0.095705 
0.008089 0.037840 0.095359 
0.006992 0.039465 0.096682 
0.005658 0.040532 0.097895 
0.005224 0.040308 0.097980 
0.005981 0.040885 0.097764 
0.008056 0.035181 0.094204 
0.006210 0.036833 0.095861 
0.007080 0.034907 0.094411 
0.008724 0.035501 0.094017 
0.009222 0.036030 0.093780 
0.009688 0.036929 0.093421 
0.008498 0.038630 0.095048 
0.007345 0.040150 0.096419 
0.006284 0.041472 0.097546 
0.005369 0.042581 0.098443 
0.005110 0.042077 0.098619 
0.004833 0.041773 0.098724 
0.004463 0.041576 0.098790 
0.003922 0.041394 0.098848 
0.004591 0.040104 0.098058 
0.005367 0.038574 0.097070 
-0.007374 0.004407 0.021505 
-0.007362 0.005368 0.030271 
-0.010512 0.006248 0.030209 
-0.010530 0.005287 0.021446 
-0.003805 0.003705 0.021553 
-0.003798 0.004667 0.030321 
-0.007344 0.006575 0.038412 
-0.010487 0.007454 0.038355 
-0.003789 0.005875 0.038458 
-0.010551 0.004650 0.012222 
-0.013059 0.006115 0.021390 
-0.013085 0.005477 0.012182 
-0.007388 0.003769 0.012265 
-0.003812 0.003067 0.012299 
-0.000036 0.002776 0.012314 
-0.000036 0.003413 0.021572 
-0.000036 0.004375 0.030342 
-0.000036 0.005583 0.038477 
-0.000036 0.006961 0.045832 
-0.003774 0.007251 0.045815 
-0.007315 0.007949 0.045775 
-0.010445 0.008825 0.045725 
-0.012954 0.009649 0.045678 
-0.013006 0.008280 0.038301 
-0.013037 0.007076 0.030150 
-0.007472 0.004209 -0.016894 
-0.007439 0.003667 -0.007063 
-0.010622 0.004550 -0.007029 
-0.010670 0.005094 -0.016817 
-0.003855 0.003503 -0.016956 
-0.003838 0.002963 -0.007090 
-0.007410 0.003519 0.002699 
-0.010582 0.004400 0.002690 
-0.003823 0.002817 0.002707 
-0.010722 0.006029 -0.026556 
-0.013233 0.005926 -0.016743 
-0.013297 0.006864 -0.026449 
-0.007508 0.005141 -0.026670 
-0.003874 0.004432 -0.026760 
-0.000037 0.004138 -0.026798 
-0.000037 0.003210 -0.016982 
-0.000037 0.002671 -0.007101 
-0.000036 0.002525 0.002710 
-0.013123 0.005229 0.002681 
-0.013174 0.005380 -0.006997 
-0.007683 0.023247 -0.089761 
-0.007739 0.019449 -0.081744 
-0.011051 0.020351 -0.081536 
-0.010971 0.024134 -0.089522 
-0.003964 0.022540 -0.089951 
-0.003993 0.018730 -0.081909 
-0.007724 0.015994 -0.073135 
-0.011030 0.016900 -0.072955 
-0.003985 0.015271 -0.073280 
-0.010737 0.028184 -0.096684 
-0.013607 0.024968 -0.089297 
-0.013316 0.028990 -0.096427 
-0.007519 0.027328 -0.096957 
-0.003880 0.026645 -0.097175 
-0.000037 0.026361 -0.097265 
-0.000038 0.022246 -0.090031 
-0.000038 0.018431 -0.081978 
-0.000038 0.014971 -0.073339 
-0.000038 0.011922 -0.064348 
-0.003961 0.012222 -0.064294 
-0.007677 0.012943 -0.064165 
-0.010962 0.013848 -0.064003 
-0.013595 0.014700 -0.063851 
-0.013679 0.017753 -0.072785 
-0.013705 0.021199 -0.081341 
-0.004253 0.082563 -0.149337 
-0.004437 0.083496 -0.148774 
-0.003852 0.083442 -0.148829 
-0.003694 0.082449 -0.149430 
-0.004737 0.082660 -0.149227 
-0.004951 0.083514 -0.148709 
-0.004614 0.084523 -0.148118 
-0.004004 0.084522 -0.148139 
-0.005153 0.084487 -0.148086 
-0.003592 0.081596 -0.149891 
-0.003063 0.082333 -0.149508 
-0.002978 0.081444 -0.149993 
-0.004135 0.081769 -0.149763 
-0.004602 0.081967 -0.149599 
-0.004930 0.082143 -0.149440 
-0.005132 0.082666 -0.149134 
-0.005395 0.083463 -0.148640 
-0.005626 0.084404 -0.148031 
-0.005749 0.085412 -0.147367 
-0.005265 0.085514 -0.147412 
-0.004714 0.085589 -0.147420 
-0.004091 0.085635 -0.147411 
-0.003320 0.084494 -0.148160 
-0.003193 0.083369 -0.148880 
0.001647 0.088957 -0.145142 
0.001691 0.087972 -0.145854 
0.000850 0.087996 -0.145838 
0.000828 0.089007 -0.145110 
0.002430 0.088874 -0.145197 
0.002495 0.087924 -0.145885 
0.001729 0.086837 -0.146622 
0.000869 0.086836 -0.146623 
0.002552 0.086826 -0.146629 
0.000816 0.089799 -0.144463 
0.001623 0.089727 -0.144511 
0.002395 0.089613 -0.144586 
0.003116 0.089464 -0.144685 
0.003162 0.088759 -0.145273 
0.003246 0.087848 -0.145935 
0.003320 0.086793 -0.146651 
-0.001581 0.047237 0.100868 
-0.001533 0.046316 0.100941 
-0.000791 0.046307 0.101088 
-0.000816 0.047274 0.101025 
-0.002258 0.047191 0.100672 
-0.002189 0.046326 0.100756 
-0.001495 0.045406 0.100887 
-0.000771 0.045352 0.101020 
-0.002135 0.045475 0.100722 
-0.000831 0.048211 0.100813 
-0.000008 0.047289 0.101090 
-0.000008 0.048243 0.100879 
-0.001610 0.048135 0.100655 
-0.002299 0.048040 0.100455 
-0.002800 0.047147 0.100487 
-0.002714 0.046336 0.100582 
-0.002647 0.045539 0.100566 
-0.002653 0.044776 0.100448 
-0.002139 0.044663 0.100581 
-0.001498 0.044542 0.100722 
-0.000773 0.044446 0.100835 
-0.000007 0.044407 0.100882 
-0.000007 0.045329 0.101074 
-0.000008 0.046304 0.101149 
0.003463 0.048573 0.099668 
0.003389 0.049263 0.099237 
0.003118 0.049342 0.099351 
0.003185 0.048641 0.099795 
0.003695 0.048510 0.099501 
0.003614 0.049198 0.099086 
0.003329 0.049865 0.098746 
0.003064 0.049962 0.098836 
0.003545 0.049775 0.098639 
0.002798 0.048732 0.099931 
0.003949 0.048437 0.099241 
0.003853 0.049145 0.098842 
0.003757 0.049720 0.098446 
0.003703 0.050077 0.098150 
0.003549 0.050214 0.098178 
0.003342 0.050352 0.098219 
0.003078 0.050471 0.098277 
0.002704 0.050608 0.098364 
0.002691 0.050085 0.098944 
0.002739 0.049451 0.099477 
-0.003548 0.054520 0.089595 
-0.003068 0.053880 0.091691 
-0.001583 0.054213 0.091678 
-0.001831 0.054905 0.089577 
-0.005066 0.054037 0.089617 
-0.004381 0.053462 0.091708 
-0.002628 0.053220 0.093499 
-0.001356 0.053505 0.093494 
-0.003753 0.052862 0.093505 
-0.002087 0.055491 0.087205 
-0.000017 0.055065 0.089569 
-0.000020 0.055673 0.087197 
-0.004045 0.055052 0.087226 
-0.005776 0.054502 0.087252 
-0.007163 0.053984 0.087276 
-0.006283 0.053583 0.089638 
-0.005433 0.053070 0.091723 
-0.004654 0.052526 0.093512 
-0.003988 0.052032 0.094983 
-0.003216 0.052320 0.094992 
-0.002252 0.052627 0.095002 
-0.001162 0.052872 0.095010 
-0.000011 0.052973 0.095013 
-0.000013 0.053623 0.093491 
-0.000015 0.054351 0.091672 
-0.016015 0.041188 0.016047 
-0.015988 0.041827 0.023003 
-0.014802 0.042549 0.022909 
-0.014827 0.041914 0.015971 
-0.016886 0.040121 0.016194 
-0.016857 0.040768 0.023195 
-0.015950 0.042664 0.029668 
-0.014766 0.043383 0.029562 
-0.016817 0.041615 0.029896 
-0.014856 0.041533 0.008853 
-0.013059 0.042630 0.015919 
-0.013085 0.042250 0.008816 
-0.016046 0.040805 0.008903 
-0.016919 0.039732 0.008994 
-0.016750 0.042604 0.036193 
-0.015886 0.043643 0.035939 
-0.014707 0.044356 0.035827 
-0.012954 0.045068 0.035776 
-0.013006 0.044097 0.029507 
-0.013037 0.043265 0.022852 
-0.016229 0.041585 -0.013295 
-0.016156 0.040983 -0.005737 
-0.014957 0.041714 -0.005710 
-0.015025 0.042318 -0.013227 
-0.017112 0.040503 -0.013398 
-0.017035 0.039903 -0.005776 
-0.016094 0.040729 0.001647 
-0.014900 0.041459 0.001634 
-0.016969 0.039651 0.001675 
-0.015098 0.043287 -0.020966 
-0.013234 0.043038 -0.013164 
-0.013298 0.044010 -0.020873 
-0.016308 0.042553 -0.021068 
-0.017195 0.041469 -0.021227 
-0.013123 0.042176 0.001625 
-0.013174 0.042432 -0.005683 
0.016663 0.052646 -0.059855 
0.016713 0.055416 -0.066588 
0.015433 0.056155 -0.066354 
0.015387 0.053394 -0.059651 
0.017615 0.051565 -0.060220 
0.017667 0.054352 -0.067004 
0.016642 0.058205 -0.072947 
0.015368 0.058929 -0.072684 
0.017590 0.057170 -0.073411 
0.015291 0.050781 -0.052506 
0.013523 0.054135 -0.059495 
0.013438 0.051521 -0.052367 
0.016559 0.050030 -0.052685 
0.017505 0.048938 -0.053001 
0.017314 0.059888 -0.079497 
0.016384 0.060883 -0.078998 
0.015131 0.061580 -0.078709 
0.013298 0.062279 -0.078477 
0.013507 0.059652 -0.072480 
0.013564 0.056892 -0.066176 
-0.006165 0.038819 0.096950 
-0.006659 0.039070 0.096839 
-0.007705 0.037387 0.095549 
-0.007133 0.037103 0.095694 
-0.005274 0.040323 0.097974 
-0.005697 0.040544 0.097891 
-0.007022 0.039474 0.096678 
-0.008124 0.037849 0.095353 
-0.006007 0.040893 0.097761 
-0.006283 0.036853 0.095848 
-0.008132 0.035201 0.094188 
-0.007163 0.034928 0.094394 
-0.005430 0.038592 0.097061 
-0.004645 0.040120 0.098052 
-0.003968 0.041408 0.098843 
-0.004505 0.041589 0.098785 
-0.004866 0.041783 0.098721 
-0.005132 0.042084 0.098617 
-0.005381 0.042585 0.098442 
-0.006297 0.041477 0.097544 
-0.007361 0.040154 0.096416 
-0.008516 0.038635 0.095045 
-0.009709 0.036934 0.093417 
-0.009262 0.036040 0.093772 
-0.008784 0.035517 0.094005 
0.007263 0.004372 0.021508 
0.007250 0.005333 0.030274 
0.003714 0.004648 0.030323 
0.003720 0.003686 0.021554 
0.010392 0.005240 0.021449 
0.010374 0.006201 0.030212 
0.007233 0.006540 0.038415 
0.003705 0.005856 0.038459 
0.010349 0.007407 0.038358 
0.003727 0.003048 0.012300 
0.007277 0.003734 0.012267 
0.010412 0.004603 0.012225 
0.012934 0.005426 0.012185 
0.012908 0.006063 0.021393 
0.012886 0.007024 0.030154 
0.012856 0.008229 0.038304 
0.012804 0.009598 0.045681 
0.010308 0.008779 0.045728 
0.007204 0.007914 0.045777 
0.003690 0.007233 0.045816 
0.003827 0.007456 -0.045851 
0.007471 0.008155 -0.045738 
0.007432 0.006427 -0.036292 
0.003807 0.005732 -0.036396 
0.003849 0.009606 -0.055146 
0.007514 0.010308 -0.055028 
0.010690 0.009040 -0.045595 
0.010634 0.007308 -0.036159 
0.010751 0.011198 -0.054878 
-0.000037 0.005455 -0.036438 
0.003788 0.004413 -0.026763 
-0.000037 0.007178 -0.045896 
-0.000038 0.009326 -0.055193 
0.003873 0.012202 -0.064298 
0.007561 0.012907 -0.064172 
0.010818 0.013800 -0.064012 
0.013438 0.014647 -0.063861 
0.013355 0.012041 -0.054736 
0.013279 0.009879 -0.045460 
0.013209 0.008142 -0.036033 
0.013143 0.006812 -0.026456 
0.010581 0.005982 -0.026562 
0.007395 0.005105 -0.026674 
0.016574 0.026229 -0.088879 
0.016693 0.022486 -0.080973 
0.015414 0.021800 -0.081194 
0.015304 0.025558 -0.089128 
0.017522 0.027235 -0.088423 
0.017647 0.023519 -0.080563 
0.016661 0.019052 -0.072463 
0.015385 0.018358 -0.072656 
0.017612 0.020103 -0.072104 
0.014977 0.029560 -0.096236 
0.013449 0.024916 -0.089311 
0.013162 0.028940 -0.096443 
0.016222 0.030206 -0.095963 
0.017153 0.031173 -0.095474 
0.017505 0.017064 -0.063256 
0.016559 0.016002 -0.063567 
0.015291 0.015304 -0.063737 
0.013521 0.017700 -0.072795 
0.013547 0.021146 -0.081353 
0.013786 0.039517 0.086842 
0.013296 0.036980 0.087790 
0.014470 0.035219 0.085035 
0.015003 0.037982 0.084008 
0.012485 0.040906 0.089303 
0.012041 0.038611 0.090165 
0.012653 0.034774 0.088621 
0.013770 0.032817 0.085935 
0.011459 0.036613 0.090920 
0.015215 0.040924 0.082919 
0.016104 0.036314 0.080748 
0.016332 0.039475 0.079586 
0.013981 0.042219 0.085836 
0.012661 0.043352 0.088388 
0.011132 0.042136 0.091445 
0.010736 0.040090 0.092216 
0.010217 0.038310 0.092890 
0.010866 0.035065 0.091516 
0.011998 0.033064 0.089279 
0.013057 0.030955 0.086648 
0.014015 0.028764 0.083561 
0.014780 0.030766 0.082803 
0.015532 0.033347 0.081843 
0.017876 0.039736 0.070376 
0.017241 0.043040 0.069185 
0.016456 0.044392 0.073441 
0.017062 0.041241 0.074587 
0.018550 0.038183 0.065872 
0.017891 0.041616 0.064647 
0.016407 0.045923 0.068153 
0.015660 0.047141 0.072449 
0.017025 0.044611 0.063586 
0.017303 0.037889 0.075809 
0.016104 0.042636 0.078425 
0.018129 0.036220 0.071646 
0.018812 0.034531 0.067180 
0.019088 0.036648 0.061158 
0.018410 0.040185 0.059909 
0.017519 0.043271 0.058827 
0.016612 0.045679 0.057996 
0.016144 0.046949 0.062770 
0.015558 0.048173 0.067360 
0.014849 0.049287 0.071687 
0.014015 0.050223 0.075669 
0.014780 0.048200 0.076393 
0.015532 0.045608 0.077336 
-0.012664 0.034777 0.088619 
-0.013299 0.036981 0.087789 
-0.014474 0.035220 0.085034 
-0.013782 0.032820 0.085932 
-0.011468 0.036616 0.090918 
-0.012044 0.038611 0.090164 
-0.013786 0.039517 0.086842 
-0.015004 0.037982 0.084008 
-0.012485 0.040906 0.089303 
-0.013085 0.030961 0.086641 
-0.014793 0.030769 0.082800 
-0.014045 0.028772 0.083554 
-0.012024 0.033070 0.089273 
-0.010889 0.035071 0.091511 
-0.010226 0.038312 0.092889 
-0.010739 0.040091 0.092215 
-0.011132 0.042136 0.091444 
-0.012661 0.043352 0.088388 
-0.013981 0.042219 0.085836 
-0.015215 0.040924 0.082919 
-0.016332 0.039475 0.079586 
-0.016104 0.036315 0.080748 
-0.015535 0.033348 0.081843 
-0.016421 0.045918 0.068153 
-0.017245 0.043039 0.069185 
-0.016460 0.044391 0.073441 
-0.015673 0.047136 0.072449 
-0.017040 0.044606 0.063586 
-0.017895 0.041615 0.064647 
-0.017877 0.039735 0.070376 
-0.017063 0.041241 0.074587 
-0.018551 0.038183 0.065872 
-0.014881 0.049274 0.071687 
-0.014793 0.048195 0.076394 
-0.014045 0.050212 0.075670 
-0.015591 0.048161 0.067361 
-0.016179 0.046936 0.062771 
-0.016648 0.045665 0.057996 
-0.017534 0.043265 0.058827 
-0.018414 0.040184 0.059909 
-0.019089 0.036648 0.061158 
-0.018812 0.034531 0.067180 
-0.018129 0.036220 0.071646 
-0.017303 0.037889 0.075809 
-0.016104 0.042636 0.078425 
-0.015535 0.045606 0.077336 
0.005369 0.055447 0.078397 
0.004933 0.055556 0.081661 
0.007059 0.054883 0.081693 
0.007682 0.054715 0.078431 
0.002750 0.056024 0.078370 
0.002527 0.056087 0.081636 
0.004468 0.055424 0.084591 
0.006393 0.054815 0.084619 
0.002288 0.055905 0.084568 
0.008246 0.054287 0.074796 
0.009542 0.054021 0.078464 
0.010242 0.053543 0.074831 
0.005763 0.055073 0.074759 
0.002952 0.055693 0.074730 
-0.000029 0.055940 0.074718 
-0.000027 0.056254 0.078359 
-0.000025 0.056298 0.081626 
-0.000022 0.056096 0.084559 
0.002040 0.055503 0.087205 
0.003983 0.055074 0.087225 
0.005700 0.054531 0.087251 
0.007080 0.054016 0.087275 
0.007941 0.054238 0.084647 
0.008768 0.054246 0.081723 
0.012937 0.021431 0.077082 
0.014010 0.021972 0.076846 
0.013372 0.024327 0.080864 
0.012348 0.023829 0.081135 
0.013425 0.019122 0.072667 
0.014538 0.019705 0.072472 
0.014810 0.022840 0.076510 
0.014136 0.025142 0.080514 
0.015368 0.020618 0.072154 
0.010852 0.023400 0.081431 
0.011654 0.026248 0.084719 
0.010242 0.025866 0.085053 
0.011370 0.020950 0.077318 
0.011798 0.018591 0.072834 
0.012140 0.016399 0.068103 
0.013814 0.016973 0.067995 
0.014960 0.017591 0.067837 
0.015814 0.018541 0.067536 
0.016144 0.022138 0.071614 
0.015558 0.024297 0.075971 
0.014849 0.026526 0.079982 
0.013342 0.027464 0.084078 
0.012621 0.026703 0.084429 
-0.013059 0.051179 0.066486 
-0.014106 0.050549 0.066597 
-0.013464 0.051552 0.070952 
-0.012465 0.052154 0.070846 
-0.013552 0.050071 0.061870 
-0.014638 0.049417 0.061985 
-0.014873 0.049637 0.066861 
-0.014196 0.050683 0.071206 
-0.015434 0.048470 0.062256 
-0.010979 0.052757 0.070806 
-0.011765 0.052927 0.074871 
-0.010362 0.053496 0.074833 
-0.011503 0.051811 0.066445 
-0.011936 0.050727 0.061828 
-0.012282 0.049569 0.057034 
-0.013944 0.048894 0.057078 
-0.015062 0.048221 0.057195 
-0.015881 0.047246 0.057472 
-0.013399 0.051540 0.075213 
-0.012708 0.052360 0.074972 
-0.013464 0.024351 0.080846 
-0.014106 0.022000 0.076833 
-0.013059 0.021466 0.077064 
-0.012465 0.023860 0.081112 
-0.014196 0.025159 0.080503 
-0.014873 0.022858 0.076501 
-0.014638 0.019736 0.072463 
-0.013552 0.019161 0.072654 
-0.015434 0.020638 0.072148 
-0.011765 0.026275 0.084694 
-0.010979 0.023434 0.081407 
-0.010362 0.025896 0.085025 
-0.012708 0.026724 0.084409 
-0.013399 0.027478 0.084065 
-0.014881 0.026535 0.079975 
-0.015591 0.024306 0.075966 
-0.016179 0.022149 0.071611 
-0.015881 0.018563 0.067532 
-0.015062 0.017624 0.067831 
-0.013944 0.017016 0.067987 
-0.012282 0.016445 0.068095 
-0.011936 0.018633 0.072821 
-0.011503 0.020988 0.077299 
0.017876 0.032705 0.072918 
0.017241 0.029403 0.074113 
0.017891 0.027449 0.069716 
0.018550 0.030879 0.068488 
0.017062 0.034537 0.077032 
0.016456 0.031390 0.078183 
0.016407 0.026530 0.075156 
0.017025 0.024461 0.070785 
0.015660 0.028651 0.079190 
-0.016421 0.026533 0.075154 
-0.017245 0.029405 0.074113 
-0.017895 0.027450 0.069715 
-0.017040 0.024466 0.070783 
-0.015673 0.028655 0.079188 
-0.016460 0.031391 0.078182 
-0.017877 0.032705 0.072918 
-0.018551 0.030879 0.068488 
-0.017063 0.034537 0.077032 
0.012937 0.051227 0.066484 
0.014010 0.050586 0.066595 
0.014538 0.049455 0.061983 
0.013425 0.050120 0.061868 
0.012348 0.052199 0.070844 
0.013372 0.051588 0.070951 
0.014810 0.049662 0.066860 
0.015368 0.048495 0.062255 
0.014136 0.050706 0.071205 
0.011798 0.050780 0.061825 
0.013814 0.048945 0.057076 
0.011370 0.051863 0.066442 
0.010852 0.052806 0.070804 
0.011654 0.052970 0.074869 
0.012621 0.052393 0.074970 
0.013342 0.051562 0.075212 
0.015814 0.047272 0.057471 
0.014960 0.048261 0.057193 
0.019794 0.033802 0.051133 
0.019090 0.037483 0.049881 
0.018804 0.038802 0.055016 
0.019497 0.035184 0.056277 
0.019999 0.032502 0.045594 
0.019288 0.036235 0.044383 
0.018167 0.040694 0.048797 
0.017894 0.041958 0.053924 
0.018355 0.039491 0.043334 
0.017405 0.042031 0.042527 
0.017226 0.043200 0.047965 
0.016968 0.044421 0.053086 
-0.018182 0.040688 0.048798 
-0.019095 0.037481 0.049882 
-0.018808 0.038800 0.055016 
-0.017909 0.041952 0.053925 
-0.018371 0.039484 0.043334 
-0.019293 0.036233 0.044383 
-0.019794 0.033802 0.051133 
-0.019497 0.035184 0.056277 
-0.019999 0.032502 0.045594 
-0.017004 0.044407 0.053086 
-0.017263 0.043186 0.047965 
-0.017442 0.042017 0.042528 
0.006977 0.012835 0.063350 
0.007083 0.011023 0.058057 
0.010135 0.011869 0.058004 
0.009983 0.013655 0.063269 
0.003574 0.012188 0.063414 
0.003628 0.010357 0.058099 
0.007156 0.009400 0.052272 
0.010240 0.010258 0.052227 
0.003666 0.008722 0.052308 
0.009773 0.015661 0.068233 
0.012400 0.014432 0.063192 
0.006830 0.014882 0.068370 
0.003499 0.014268 0.068478 
-0.000034 0.014024 0.068521 
-0.000035 0.011930 0.063439 
-0.000035 0.010091 0.058116 
-0.000036 0.008453 0.052323 
0.012720 0.011071 0.052184 
0.012589 0.012670 0.057953 
-0.014460 0.046544 0.047043 
-0.015619 0.045844 0.047161 
-0.015385 0.047021 0.052277 
-0.014243 0.047709 0.052159 
-0.014610 0.045419 0.041632 
-0.015781 0.044711 0.041748 
-0.016468 0.044830 0.047439 
-0.016221 0.046024 0.052557 
-0.016639 0.043684 0.042019 
-0.012545 0.048398 0.052114 
-0.012736 0.047243 0.046997 
-0.012868 0.046126 0.041584 
-0.010270 0.011914 0.058001 
-0.007192 0.011058 0.058055 
-0.007084 0.012868 0.063347 
-0.010116 0.013699 0.063264 
-0.010376 0.010304 0.052224 
-0.007266 0.009434 0.052271 
-0.003711 0.010375 0.058098 
-0.003655 0.012206 0.063412 
-0.003749 0.008741 0.052307 
-0.012545 0.014481 0.063187 
-0.009904 0.015703 0.068225 
-0.012736 0.012720 0.057950 
-0.012868 0.011122 0.052181 
-0.003578 0.014285 0.068475 
-0.006935 0.014914 0.068364 
0.013786 0.044921 0.084832 
0.013296 0.047461 0.083890 
0.012041 0.048097 0.086618 
0.012485 0.045797 0.087474 
0.015003 0.043867 0.081831 
0.014470 0.046633 0.080811 
0.012653 0.049677 0.083074 
0.011459 0.050102 0.085876 
0.013770 0.049046 0.079928 
0.013057 0.050930 0.079249 
0.011998 0.051407 0.082448 
0.010866 0.051668 0.085306 
-0.012664 0.049673 0.083074 
-0.013299 0.047460 0.083890 
-0.012044 0.048095 0.086618 
-0.011468 0.050098 0.085876 
-0.013782 0.049042 0.079928 
-0.014474 0.046632 0.080811 
-0.013786 0.044921 0.084832 
-0.012485 0.045797 0.087474 
-0.015004 0.043866 0.081831 
-0.010889 0.051659 0.085306 
-0.012024 0.051397 0.082448 
-0.013085 0.050919 0.079250 
0.009977 0.030924 0.090303 
0.010805 0.031307 0.090040 
0.009785 0.033470 0.092198 
0.009035 0.033118 0.092425 
0.010858 0.028624 0.087760 
0.011758 0.029041 0.087474 
0.011421 0.031954 0.089729 
0.010343 0.034059 0.091922 
0.012430 0.029746 0.087136 
0.007941 0.032823 0.092686 
0.008768 0.030605 0.090610 
0.009542 0.028278 0.088095 
-0.010071 0.053719 0.081757 
-0.010879 0.053234 0.081844 
-0.009852 0.053321 0.084757 
-0.009121 0.053761 0.084677 
-0.010960 0.053447 0.078501 
-0.011839 0.052919 0.078596 
-0.011470 0.052532 0.082053 
-0.010387 0.052687 0.084947 
-0.012483 0.052155 0.078822 
-0.008033 0.054202 0.084648 
-0.008132 0.053591 0.087302 
-0.008871 0.054206 0.081725 
-0.009654 0.053978 0.078466 
-0.009262 0.052633 0.087543 
-0.008784 0.053199 0.087374 
-0.007153 0.030228 0.090995 
-0.005009 0.029801 0.091432 
-0.004536 0.032074 0.093383 
-0.006478 0.032472 0.093012 
-0.007784 0.027869 0.088515 
-0.005451 0.027404 0.088992 
-0.002585 0.029460 0.091781 
-0.002341 0.031757 0.093678 
-0.002813 0.027034 0.089373 
-0.008033 0.032846 0.092664 
-0.005776 0.034580 0.094669 
-0.008871 0.030630 0.090584 
-0.009654 0.028306 0.088067 
-0.008355 0.025412 0.085471 
-0.005851 0.024897 0.085945 
-0.003019 0.024487 0.086323 
-0.000029 0.024316 0.086480 
-0.000027 0.026880 0.089531 
-0.000025 0.029319 0.091926 
-0.000022 0.031625 0.093801 
-0.000020 0.033791 0.095292 
-0.002087 0.033914 0.095195 
-0.004045 0.034210 0.094962 
0.008441 0.044097 0.094923 
0.008140 0.042547 0.095509 
0.009417 0.041403 0.093991 
0.009764 0.043197 0.093312 
0.007224 0.044852 0.096284 
0.006966 0.043526 0.096782 
0.007746 0.041198 0.096020 
0.008962 0.039842 0.094584 
0.006628 0.042371 0.097212 
0.006179 0.045474 0.097404 
0.005956 0.044339 0.097819 
0.005665 0.043351 0.098172 
-0.007753 0.041200 0.096019 
-0.008142 0.042548 0.095509 
-0.009420 0.041404 0.093991 
-0.008969 0.039844 0.094582 
-0.006634 0.042372 0.097212 
-0.006968 0.043526 0.096782 
-0.008441 0.044098 0.094922 
-0.009765 0.043197 0.093312 
-0.007225 0.044852 0.096284 
-0.005670 0.043352 0.098172 
-0.005957 0.044340 0.097819 
-0.006179 0.045474 0.097404 
0.006110 0.052794 0.091740 
0.006617 0.052492 0.091794 
0.007653 0.052915 0.089722 
0.007067 0.053264 0.089659 
0.005234 0.052289 0.093522 
0.005668 0.052031 0.093565 
0.006995 0.052058 0.091925 
0.008090 0.052412 0.089872 
0.005991 0.051659 0.093678 
0.006210 0.053611 0.089637 
0.008056 0.053620 0.087301 
0.005370 0.053094 0.091722 
0.004600 0.052546 0.093511 
0.003942 0.052050 0.094983 
0.004486 0.051829 0.094982 
0.004857 0.051608 0.095015 
0.005134 0.051290 0.095113 
0.009222 0.052649 0.087543 
0.008724 0.053222 0.087372 
0.002416 0.043110 0.100002 
0.001688 0.042918 0.100089 
0.001908 0.042007 0.099605 
0.002730 0.042227 0.099531 
0.002211 0.043891 0.100349 
0.001545 0.043732 0.100461 
0.000865 0.042766 0.100159 
0.000977 0.041834 0.099663 
0.000791 0.043606 0.100549 
0.003391 0.042436 0.099461 
0.003157 0.041160 0.098922 
0.003001 0.043292 0.099918 
0.002746 0.044042 0.100243 
0.002111 0.044657 0.100589 
0.001476 0.044538 0.100728 
0.000756 0.044444 0.100838 
-0.000008 0.043555 0.100585 
-0.000008 0.042706 0.100186 
-0.000010 0.041765 0.099687 
-0.000011 0.040641 0.099087 
0.001130 0.040719 0.099062 
0.002207 0.040913 0.099000 
0.004722 0.046370 0.098983 
0.004551 0.045500 0.099252 
0.005156 0.044993 0.098635 
0.005351 0.045976 0.098296 
0.004256 0.046666 0.099490 
0.004112 0.045877 0.099698 
0.004337 0.044745 0.099459 
0.004902 0.044136 0.098914 
0.003948 0.045198 0.099833 
0.005433 0.047022 0.097909 
0.004798 0.047295 0.098651 
0.004327 0.047506 0.099202 
0.003782 0.044698 0.099925 
0.004119 0.044164 0.099612 
0.004646 0.043469 0.099125 
-0.004254 0.051266 0.096136 
-0.003797 0.050990 0.096989 
-0.003514 0.051154 0.096987 
-0.003939 0.051454 0.096115 
-0.004485 0.050996 0.096222 
-0.004005 0.050758 0.097054 
-0.003506 0.050704 0.097653 
-0.003241 0.050844 0.097678 
-0.003705 0.050516 0.097677 
-0.004528 0.051813 0.094982 
-0.003469 0.051645 0.096133 
-0.004891 0.051595 0.095015 
-0.005156 0.051282 0.095113 
-0.004698 0.050559 0.096402 
-0.004191 0.050385 0.097217 
-0.003870 0.050218 0.097799 
-0.002854 0.050995 0.097740 
-0.003095 0.051322 0.097026 
-0.004743 0.048217 0.098267 
-0.004591 0.049076 0.097868 
-0.005182 0.049045 0.097071 
-0.005364 0.048066 0.097489 
-0.004287 0.048340 0.098840 
-0.004166 0.049107 0.098447 
-0.004394 0.049816 0.097501 
-0.004941 0.049897 0.096695 
-0.004021 0.049746 0.098075 
-0.005433 0.047022 0.097909 
-0.004799 0.047295 0.098651 
-0.004331 0.047506 0.099201 
-0.004342 0.044746 0.099459 
-0.004553 0.045501 0.099252 
-0.005157 0.044993 0.098635 
-0.004907 0.044137 0.098914 
-0.003954 0.045199 0.099831 
-0.004116 0.045877 0.099697 
-0.004723 0.046370 0.098982 
-0.005351 0.045976 0.098296 
-0.004260 0.046665 0.099489 
-0.004656 0.043472 0.099124 
-0.004129 0.044167 0.099611 
-0.003792 0.044701 0.099923 
-0.003630 0.045051 0.100078 
-0.003689 0.045486 0.100073 
-0.003802 0.046128 0.100002 
-0.003925 0.046871 0.099842 
-0.001937 0.042017 0.099602 
-0.001714 0.042925 0.100086 
-0.002448 0.043120 0.099997 
-0.002766 0.042239 0.099527 
-0.000999 0.041839 0.099662 
-0.000884 0.042770 0.100157 
-0.001569 0.043738 0.100457 
-0.002240 0.043900 0.100343 
-0.000809 0.043609 0.100547 
-0.003199 0.041173 0.098918 
-0.003430 0.042449 0.099456 
-0.002240 0.040923 0.098997 
-0.001156 0.040724 0.099060 
-0.002778 0.044052 0.100236 
-0.003036 0.043303 0.099913 
0.004389 0.049817 0.097502 
0.004589 0.049077 0.097868 
0.005180 0.049045 0.097071 
0.004937 0.049898 0.096695 
0.004014 0.049749 0.098077 
0.004162 0.049108 0.098448 
0.004742 0.048217 0.098267 
0.005364 0.048066 0.097489 
0.004283 0.048341 0.098841 
0.004687 0.050563 0.096403 
0.004182 0.050389 0.097218 
0.003860 0.050222 0.097800 
0.001930 0.052174 0.096200 
0.001721 0.051791 0.097151 
0.002463 0.051557 0.097089 
0.002761 0.051910 0.096167 
0.000988 0.052381 0.096226 
0.000882 0.051975 0.097200 
0.001587 0.051418 0.097929 
0.002271 0.051207 0.097835 
0.000813 0.051583 0.098003 
0.003174 0.052337 0.094993 
0.003429 0.051660 0.096135 
0.002218 0.052639 0.095002 
0.001136 0.052878 0.095010 
-0.000010 0.052464 0.096237 
-0.000009 0.052048 0.097220 
-0.000008 0.051650 0.098032 
-0.000008 0.051193 0.098744 
0.000779 0.051133 0.098705 
0.001522 0.050982 0.098607 
0.002177 0.050790 0.098482 
0.002821 0.051008 0.097746 
0.003059 0.051336 0.097030 
0.013590 0.037864 -0.107487 
0.014723 0.038432 -0.107187 
0.015583 0.034327 -0.102056 
0.014386 0.033716 -0.102346 
0.012676 0.041827 -0.111737 
0.013735 0.042348 -0.111435 
0.015581 0.039283 -0.106683 
0.016484 0.035240 -0.101551 
0.014542 0.043133 -0.110944 
0.012643 0.033130 -0.102577 
0.011943 0.037322 -0.107737 
0.011139 0.041331 -0.112001 
0.010308 0.044976 -0.115444 
0.011730 0.045426 -0.115175 
0.012713 0.045902 -0.114878 
0.013465 0.046622 -0.114408 
0.014195 0.047805 -0.113624 
0.015319 0.044420 -0.110114 
0.016399 0.040676 -0.105820 
0.017336 0.036732 -0.100676 
0.017343 0.042793 -0.104491 
0.018286 0.045510 -0.102776 
0.019284 0.041910 -0.097577 
0.018314 0.039000 -0.099323 
0.016221 0.046378 -0.108841 
0.017126 0.048890 -0.107201 
0.019025 0.048627 -0.100804 
0.020037 0.045249 -0.095567 
0.017845 0.051773 -0.105316 
0.015048 0.049605 -0.112425 
0.015910 0.051916 -0.110883 
0.016600 0.054568 -0.109111 
0.016941 0.057390 -0.107226 
0.018187 0.054841 -0.103309 
0.019361 0.051945 -0.098704 
0.020363 0.048802 -0.093426 
-0.017717 0.061095 -0.092919 
-0.018545 0.058378 -0.094633 
-0.019452 0.055693 -0.089276 
-0.018560 0.058603 -0.087529 
-0.016716 0.063304 -0.097778 
-0.017472 0.060792 -0.099418 
-0.019158 0.055262 -0.096605 
-0.020122 0.052354 -0.091285 
-0.018023 0.057909 -0.101303 
-0.017653 0.060871 -0.086176 
-0.016870 0.063213 -0.091589 
-0.015936 0.065261 -0.096505 
-0.014919 0.066975 -0.100828 
-0.015633 0.065175 -0.102027 
-0.016319 0.062864 -0.103569 
-0.016811 0.060212 -0.105340 
-0.016941 0.057390 -0.107226 
-0.018187 0.054841 -0.103309 
-0.019361 0.051945 -0.098704 
-0.020363 0.048802 -0.093426 
-0.007370 0.066381 -0.083553 
-0.007052 0.068333 -0.088879 
-0.010071 0.067482 -0.089261 
-0.010524 0.065462 -0.083901 
-0.003803 0.067114 -0.083275 
-0.003639 0.069012 -0.088575 
-0.006671 0.069963 -0.093775 
-0.009527 0.069186 -0.094182 
-0.003442 0.070583 -0.093451 
-0.010848 0.063137 -0.078203 
-0.013051 0.064598 -0.084229 
-0.007597 0.064110 -0.077893 
-0.003920 0.064885 -0.077646 
-0.000037 0.065208 -0.077543 
-0.000036 0.067418 -0.083160 
-0.000035 0.069294 -0.088448 
-0.000033 0.070841 -0.093317 
-0.000031 0.072063 -0.097672 
-0.003227 0.071830 -0.097810 
-0.006254 0.071267 -0.098143 
-0.008931 0.070562 -0.098560 
-0.011076 0.069899 -0.098952 
-0.011815 0.068455 -0.094564 
-0.012489 0.066682 -0.089621 
-0.009742 0.036661 -0.108034 
-0.006822 0.035912 -0.108370 
-0.007222 0.031607 -0.103154 
-0.010313 0.032416 -0.102847 
-0.009087 0.040728 -0.112316 
-0.006363 0.040044 -0.112673 
-0.003520 0.035315 -0.108637 
-0.003727 0.030962 -0.103398 
-0.003283 0.039499 -0.112958 
-0.012790 0.033177 -0.102559 
-0.012082 0.037365 -0.107718 
-0.011269 0.041371 -0.111980 
-0.010428 0.045012 -0.115422 
-0.008409 0.044429 -0.115767 
-0.005888 0.043808 -0.116134 
-0.003038 0.043314 -0.116427 
-0.000029 0.043108 -0.116549 
-0.000031 0.039273 -0.113077 
-0.000034 0.035066 -0.108749 
-0.000036 0.030694 -0.103500 
-0.019025 0.048627 -0.100804 
-0.018290 0.045511 -0.102775 
-0.019289 0.041912 -0.097576 
-0.020037 0.045249 -0.095567 
-0.017846 0.051774 -0.105316 
-0.017131 0.048892 -0.107200 
-0.017358 0.042797 -0.104488 
-0.018330 0.039005 -0.099321 
-0.016235 0.046382 -0.108839 
-0.016601 0.054568 -0.109111 
-0.015914 0.051917 -0.110882 
-0.015061 0.049608 -0.112423 
-0.014226 0.047814 -0.113619 
-0.015351 0.044430 -0.110109 
-0.016434 0.040687 -0.105815 
-0.017373 0.036744 -0.100672 
0.015892 0.063333 -0.084775 
0.015205 0.065508 -0.090199 
0.014046 0.066120 -0.089879 
0.014679 0.063991 -0.084467 
0.016789 0.062392 -0.085291 
0.016056 0.064632 -0.090714 
0.014381 0.067380 -0.095160 
0.013287 0.067942 -0.094837 
0.015179 0.066572 -0.095663 
0.012901 0.064651 -0.084208 
0.017615 0.060884 -0.086171 
0.016834 0.063225 -0.091584 
0.015902 0.065273 -0.096499 
0.014887 0.066985 -0.100822 
0.014221 0.068179 -0.100031 
0.013479 0.068920 -0.099550 
0.012456 0.069432 -0.099231 
0.010948 0.069940 -0.098928 
0.011678 0.068501 -0.094540 
0.012345 0.066732 -0.089598 
0.019157 0.055262 -0.096605 
0.018540 0.058380 -0.094633 
0.019447 0.055694 -0.089275 
0.020121 0.052355 -0.091285 
0.018023 0.057909 -0.101302 
0.017468 0.060793 -0.099418 
0.017702 0.061101 -0.092916 
0.018544 0.058609 -0.087527 
0.016702 0.063309 -0.097776 
0.016811 0.060213 -0.105340 
0.016315 0.062865 -0.103568 
0.015620 0.065179 -0.102024 
0.009966 0.051201 -0.120014 
0.010804 0.051599 -0.119745 
0.011732 0.048965 -0.117604 
0.010824 0.048531 -0.117889 
0.009150 0.053547 -0.121692 
0.009919 0.053912 -0.121442 
0.011448 0.052205 -0.119333 
0.012430 0.049625 -0.117161 
0.010512 0.054467 -0.121062 
0.009511 0.048121 -0.118154 
0.008758 0.050827 -0.120265 
0.008040 0.053204 -0.121926 
0.007353 0.055364 -0.123281 
0.008368 0.055677 -0.123067 
0.009071 0.056010 -0.122838 
0.009613 0.056518 -0.122490 
0.010145 0.057355 -0.121917 
0.011093 0.055382 -0.120435 
0.012080 0.053203 -0.118652 
0.013112 0.050712 -0.116428 
0.012822 0.054722 -0.117615 
0.013576 0.056674 -0.116283 
0.014721 0.054490 -0.113871 
0.013911 0.052366 -0.115309 
0.011777 0.056776 -0.119481 
0.012472 0.058566 -0.118255 
0.014187 0.058913 -0.114754 
0.015375 0.056928 -0.112220 
0.013036 0.060620 -0.116848 
0.010771 0.058629 -0.121044 
0.011407 0.060266 -0.119922 
0.011923 0.062144 -0.118635 
0.012189 0.064143 -0.117265 
0.013326 0.062806 -0.115351 
0.014500 0.061296 -0.113127 
0.015706 0.059522 -0.110463 
-0.013438 0.067869 -0.108640 
-0.014009 0.065918 -0.109972 
-0.015158 0.064553 -0.107055 
-0.014533 0.066676 -0.105617 
-0.012359 0.068834 -0.111222 
-0.012881 0.067045 -0.112447 
-0.014410 0.063679 -0.111500 
-0.015600 0.062116 -0.108706 
-0.013247 0.064991 -0.113854 
-0.013880 0.068330 -0.104498 
-0.012840 0.069388 -0.107604 
-0.011811 0.070227 -0.110268 
-0.010804 0.070928 -0.112615 
-0.011305 0.069655 -0.113488 
-0.011782 0.068018 -0.114609 
-0.012117 0.066141 -0.115896 
-0.012189 0.064142 -0.117265 
-0.013326 0.062806 -0.115351 
-0.014500 0.061296 -0.113127 
-0.015706 0.059522 -0.110463 
-0.005824 0.072254 -0.101918 
-0.005390 0.072981 -0.105174 
-0.007697 0.072394 -0.105567 
-0.008316 0.071612 -0.102330 
-0.003005 0.072765 -0.101589 
-0.002781 0.073448 -0.104860 
-0.004959 0.073518 -0.108017 
-0.007082 0.072982 -0.108383 
-0.002559 0.073946 -0.107724 
-0.010314 0.071008 -0.102717 
-0.000029 0.072978 -0.101453 
-0.000027 0.073642 -0.104729 
-0.000024 0.074124 -0.107603 
-0.000022 0.074490 -0.110174 
-0.002341 0.074328 -0.110286 
-0.004537 0.073937 -0.110553 
-0.006478 0.073447 -0.110889 
-0.008034 0.072986 -0.111205 
-0.008782 0.072477 -0.108728 
-0.009546 0.071843 -0.105937 
-0.007144 0.050372 -0.120571 
-0.005003 0.049857 -0.120917 
-0.005434 0.047058 -0.118835 
-0.007759 0.047623 -0.118473 
-0.006559 0.052788 -0.122210 
-0.004593 0.052317 -0.122532 
-0.002581 0.049446 -0.121192 
-0.002804 0.046608 -0.119124 
-0.002370 0.051941 -0.122789 
-0.009623 0.048154 -0.118132 
-0.008860 0.050857 -0.120245 
-0.008134 0.053232 -0.121907 
-0.007439 0.055389 -0.123264 
-0.005998 0.054984 -0.123542 
-0.004200 0.054552 -0.123837 
-0.002167 0.054209 -0.124073 
-0.000021 0.054066 -0.124171 
-0.000023 0.051785 -0.122896 
-0.000025 0.049275 -0.121307 
-0.000027 0.046421 -0.119244 
-0.014187 0.058913 -0.114754 
-0.013579 0.056675 -0.116282 
-0.014725 0.054491 -0.113870 
-0.015375 0.056928 -0.112220 
-0.013036 0.060620 -0.116848 
-0.012475 0.058566 -0.118254 
-0.012833 0.054725 -0.117613 
-0.013923 0.052370 -0.115307 
-0.011787 0.056779 -0.119479 
-0.011923 0.062144 -0.118635 
-0.011410 0.060266 -0.119922 
-0.010780 0.058632 -0.121042 
-0.010167 0.057361 -0.121913 
-0.011117 0.055389 -0.120431 
-0.012106 0.053210 -0.118647 
-0.013140 0.050720 -0.116423 
0.012550 0.070115 -0.103298 
0.011615 0.071026 -0.106488 
0.010735 0.071455 -0.106198 
0.011599 0.070583 -0.102991 
0.013238 0.069436 -0.103753 
0.012249 0.070403 -0.106911 
0.010685 0.071730 -0.109239 
0.009876 0.072122 -0.108971 
0.011268 0.071158 -0.109630 
0.010195 0.071046 -0.102693 
0.013850 0.068340 -0.104492 
0.012813 0.069396 -0.107598 
0.011785 0.070235 -0.110263 
0.010781 0.070936 -0.112610 
0.010308 0.071780 -0.112032 
0.009775 0.072302 -0.111674 
0.009035 0.072661 -0.111428 
0.007941 0.073014 -0.111186 
0.008681 0.072509 -0.108706 
0.009436 0.071877 -0.105914 
0.014409 0.063679 -0.111500 
0.014005 0.065919 -0.109971 
0.015154 0.064554 -0.107054 
0.015599 0.062116 -0.108705 
0.013246 0.064991 -0.113854 
0.012878 0.067046 -0.112447 
0.013427 0.067872 -0.108638 
0.014521 0.066680 -0.105615 
0.012348 0.068837 -0.111220 
0.012116 0.066141 -0.115896 
0.011779 0.068019 -0.114609 
0.011296 0.069658 -0.113486 
0.003766 0.056635 -0.124971 
0.003417 0.058579 -0.125938 
0.004889 0.058930 -0.125697 
0.005388 0.057022 -0.124705 
0.001929 0.056329 -0.125180 
0.001750 0.058302 -0.126128 
0.003099 0.060323 -0.126754 
0.004434 0.060641 -0.126535 
0.001587 0.060071 -0.126926 
0.005919 0.054960 -0.123557 
0.006693 0.057389 -0.124454 
0.004137 0.054535 -0.123849 
0.002119 0.054199 -0.124079 
-0.000019 0.056208 -0.125263 
-0.000017 0.058191 -0.126204 
-0.000016 0.059971 -0.126994 
-0.000014 0.061501 -0.127639 
0.001445 0.061592 -0.127576 
0.002822 0.061821 -0.127419 
0.004038 0.062112 -0.127220 
0.005016 0.062387 -0.127032 
0.005508 0.060943 -0.126328 
0.006073 0.059263 -0.125469 
0.006272 0.066402 -0.126732 
0.006644 0.067356 -0.126078 
0.007148 0.066636 -0.125483 
0.006749 0.065610 -0.126186 
0.005906 0.067028 -0.127189 
0.006260 0.067930 -0.126572 
0.006945 0.068451 -0.125329 
0.007472 0.067812 -0.124677 
0.006545 0.068963 -0.125865 
0.006357 0.064811 -0.126733 
0.007347 0.064614 -0.125505 
0.006920 0.063745 -0.126101 
0.005905 0.065658 -0.127241 
0.005553 0.066321 -0.127670 
0.005292 0.066838 -0.128067 
0.005643 0.067525 -0.127603 
0.005989 0.068394 -0.127011 
0.006265 0.069384 -0.126334 
0.006405 0.070435 -0.125614 
0.006692 0.070060 -0.125113 
0.007100 0.069615 -0.124531 
0.007639 0.069065 -0.123818 
0.008315 0.068375 -0.122928 
0.008133 0.067012 -0.123862 
0.007781 0.065730 -0.124740 
-0.009337 0.071066 -0.117381 
-0.009731 0.069715 -0.118307 
-0.010725 0.068908 -0.116560 
-0.010291 0.070397 -0.115540 
-0.008469 0.071649 -0.118992 
-0.008827 0.070424 -0.119832 
-0.010007 0.068164 -0.119370 
-0.011029 0.067199 -0.117732 
-0.009077 0.069017 -0.120796 
-0.009834 0.071557 -0.114745 
-0.008923 0.072118 -0.116660 
-0.008094 0.072603 -0.118338 
-0.007370 0.073004 -0.119756 
-0.007712 0.072135 -0.120351 
-0.008037 0.071019 -0.121116 
-0.008265 0.069738 -0.121994 
-0.008315 0.068375 -0.122928 
-0.009131 0.067520 -0.121822 
-0.010067 0.066514 -0.120501 
-0.011095 0.065380 -0.118978 
-0.007532 0.073527 -0.115695 
-0.008128 0.073236 -0.115894 
-0.008959 0.072789 -0.113901 
-0.008302 0.073110 -0.113681 
-0.006832 0.073882 -0.117462 
-0.007373 0.073617 -0.117643 
-0.008550 0.072810 -0.116186 
-0.009423 0.072320 -0.114223 
-0.007755 0.073231 -0.117908 
-0.007313 0.073429 -0.113462 
-0.009120 0.072635 -0.111446 
-0.006635 0.073817 -0.115496 
-0.006019 0.074145 -0.117282 
-0.005481 0.074407 -0.118794 
-0.006221 0.074168 -0.118958 
-0.006714 0.073927 -0.119123 
-0.007062 0.073576 -0.119364 
-0.010352 0.071766 -0.112041 
-0.009842 0.072282 -0.111688 
-0.008313 0.057994 -0.124039 
-0.007543 0.059812 -0.125093 
-0.006976 0.059541 -0.125279 
-0.007689 0.057695 -0.124244 
-0.008787 0.058451 -0.123727 
-0.007973 0.060226 -0.124809 
-0.006842 0.061441 -0.125987 
-0.006328 0.061195 -0.126156 
-0.007232 0.061817 -0.125729 
-0.008447 0.055700 -0.123051 
-0.006771 0.057412 -0.124438 
-0.009133 0.056028 -0.122826 
-0.009654 0.056530 -0.122482 
-0.009254 0.059207 -0.123208 
-0.008397 0.060913 -0.124339 
-0.007616 0.062440 -0.125303 
-0.006935 0.063749 -0.126098 
-0.006586 0.063182 -0.126487 
-0.006230 0.062840 -0.126721 
-0.005762 0.062616 -0.126875 
-0.005074 0.062404 -0.127020 
-0.005573 0.060962 -0.126315 
-0.006144 0.059284 -0.125455 
-0.006945 0.068451 -0.125328 
-0.006645 0.067357 -0.126078 
-0.007150 0.066636 -0.125483 
-0.007472 0.067813 -0.124677 
-0.006545 0.068963 -0.125865 
-0.006262 0.067931 -0.126572 
-0.006277 0.066403 -0.126731 
-0.006755 0.065611 -0.126185 
-0.005911 0.067029 -0.127188 
-0.007639 0.069065 -0.123818 
-0.008134 0.067012 -0.123862 
-0.007100 0.069615 -0.124531 
-0.006692 0.070060 -0.125113 
-0.006405 0.070435 -0.125614 
-0.006265 0.069384 -0.126334 
-0.005991 0.068394 -0.127011 
-0.005648 0.067526 -0.127602 
-0.005304 0.066841 -0.128065 
-0.005565 0.066325 -0.127668 
-0.005917 0.065661 -0.127239 
-0.006371 0.064815 -0.126731 
-0.007354 0.064616 -0.125504 
-0.007783 0.065731 -0.124740 
0.006124 0.074180 -0.120314 
0.005679 0.074379 -0.121270 
0.005244 0.074591 -0.121126 
0.005659 0.074405 -0.120160 
0.006459 0.073852 -0.120538 
0.005995 0.074071 -0.121480 
0.005316 0.074575 -0.122033 
0.004896 0.074782 -0.121895 
0.005626 0.074276 -0.122233 
0.006163 0.074186 -0.118946 
0.004974 0.074627 -0.120008 
0.005417 0.074427 -0.118781 
0.006668 0.073941 -0.119114 
0.007032 0.073585 -0.119358 
0.007354 0.073009 -0.119753 
0.006755 0.073323 -0.120901 
0.006275 0.073576 -0.121818 
0.005901 0.073802 -0.122554 
0.005624 0.074034 -0.123159 
0.005338 0.074504 -0.122847 
0.005017 0.074807 -0.122650 
0.004595 0.075019 -0.122514 
0.004007 0.075215 -0.122384 
0.004290 0.074980 -0.121760 
0.004605 0.074798 -0.120985 
0.010007 0.068164 -0.119370 
0.009729 0.069716 -0.118307 
0.010722 0.068909 -0.116560 
0.011029 0.067199 -0.117731 
0.009077 0.069017 -0.120796 
0.008824 0.070424 -0.119831 
0.009329 0.071069 -0.117379 
0.010282 0.070400 -0.115538 
0.008462 0.071651 -0.118990 
0.011095 0.065380 -0.118978 
0.010067 0.066514 -0.120501 
0.009131 0.067520 -0.121822 
0.008265 0.069738 -0.121994 
0.008035 0.071020 -0.121116 
0.007705 0.072137 -0.120350 
0.008076 0.072609 -0.118334 
0.008904 0.072124 -0.116656 
0.009813 0.071563 -0.114741 
0.001913 0.065699 -0.129507 
0.001766 0.066061 -0.130036 
0.002559 0.066214 -0.129908 
0.002757 0.065877 -0.129370 
0.000975 0.065567 -0.129613 
0.000898 0.065953 -0.130133 
0.001639 0.066497 -0.130772 
0.002389 0.066628 -0.130651 
0.000830 0.066412 -0.130862 
0.002970 0.065499 -0.128954 
0.003464 0.066066 -0.129234 
0.003710 0.065701 -0.128811 
0.002068 0.065296 -0.129101 
0.001057 0.065141 -0.129215 
-0.000011 0.065080 -0.129260 
-0.000011 0.065517 -0.129654 
-0.000011 0.065914 -0.130171 
-0.000011 0.066382 -0.130897 
-0.000011 0.067034 -0.131917 
0.000778 0.067056 -0.131884 
0.001542 0.067127 -0.131799 
0.002260 0.067242 -0.131682 
0.002911 0.067400 -0.131557 
0.003053 0.066793 -0.130523 
0.003242 0.066389 -0.129777 
0.005314 0.071621 -0.133346 
0.005700 0.072487 -0.132770 
0.005685 0.071338 -0.131080 
0.005303 0.070474 -0.131655 
0.005355 0.072928 -0.135291 
