0.035833 0.032980 0.016355 
0.036174 0.032966 0.015450 
0.028684 0.032110 0.027371 
0.029310 0.032107 0.026684 
0.029915 0.032102 0.025978 
0.030500 0.032096 0.025253 
0.031064 0.032087 0.024510 
0.031607 0.032078 0.023750 
0.032130 0.032067 0.022973 
0.032633 0.032055 0.022180 
0.033115 0.032042 0.021372 
0.033576 0.032028 0.020549 
0.034017 0.032014 0.019711 
0.034437 0.031998 0.018860 
0.034837 0.031983 0.017997 
0.035216 0.031966 0.017121 
0.035575 0.031950 0.016234 
0.035913 0.031933 0.015335 
0.028453 0.031121 0.027150 
0.029074 0.031117 0.026469 
0.029675 0.031111 0.025768 
0.030255 0.031103 0.025049 
0.030815 0.031094 0.024312 
0.031355 0.031082 0.023558 
0.031874 0.031070 0.022787 
0.032373 0.031055 0.022000 
0.032851 0.031040 0.021199 
0.033309 0.031023 0.020382 
0.033747 0.031006 0.019551 
0.034164 0.030987 0.018707 
0.034561 0.030968 0.017851 
0.034937 0.030949 0.016982 
0.035294 0.030929 0.016102 
0.035629 0.030909 0.015211 
0.028206 0.030141 0.026913 
0.028821 0.030137 0.026238 
0.029417 0.030130 0.025543 
0.029993 0.030121 0.024830 
0.030548 0.030110 0.024099 
0.031083 0.030096 0.023352 
0.031598 0.030081 0.022587 
0.032093 0.030065 0.021808 
0.032567 0.030047 0.021013 
0.033022 0.030027 0.020203 
0.033456 0.030007 0.019380 
0.033870 0.029985 0.018543 
0.034264 0.029963 0.017694 
0.034637 0.029941 0.016833 
0.034991 0.029918 0.015960 
0.035324 0.029895 0.015077 
0.027941 0.029171 0.026661 
0.028552 0.029166 0.025991 
0.029142 0.029158 0.025303 
0.029712 0.029148 0.024596 
0.030263 0.029135 0.023872 
0.030793 0.029120 0.023132 
0.031304 0.029103 0.022375 
0.031794 0.029084 0.021602 
0.032264 0.029064 0.020814 
0.032715 0.029042 0.020012 
0.033145 0.029018 0.019197 
0.033556 0.028994 0.018368 
0.033946 0.028969 0.017527 
0.034317 0.028943 0.016673 
0.034667 0.028917 0.015809 
0.034997 0.028890 0.014934 
0.027662 0.028212 0.026394 
0.028266 0.028206 0.025731 
0.028851 0.028198 0.025049 
0.029416 0.028186 0.024350 
0.029961 0.028172 0.023633 
0.030487 0.028155 0.022899 
0.030992 0.028136 0.022150 
0.031478 0.028115 0.021385 
0.031944 0.028091 0.020605 
0.032390 0.028067 0.019811 
0.032817 0.028041 0.019003 
0.033223 0.028013 0.018183 
0.033610 0.027985 0.017350 
0.033977 0.027956 0.016505 
0.034324 0.027927 0.015650 
0.034652 0.027897 0.014783 
0.027368 0.027264 0.026113 
0.027966 0.027258 0.025457 
0.028545 0.027248 0.024782 
0.029104 0.027236 0.024090 
0.029644 0.027220 0.023381 
0.030164 0.027201 0.022655 
0.030664 0.027180 0.021913 
0.031145 0.027156 0.021156 
0.031607 0.027131 0.020385 
0.032049 0.027103 0.019599 
0.032471 0.027074 0.018800 
0.032873 0.027044 0.017988 
0.033256 0.027013 0.017164 
0.033620 0.026981 0.016329 
0.033964 0.026948 0.015482 
0.034288 0.026916 0.014625 
0.027061 0.026328 0.025819 
0.027653 0.026321 0.025170 
0.028225 0.026311 0.024503 
0.028778 0.026297 0.023819 
0.029312 0.026280 0.023117 
0.029827 0.026259 0.022399 
0.030322 0.026236 0.021666 
0.030798 0.026210 0.020918 
0.031254 0.026182 0.020155 
0.031691 0.026152 0.019378 
0.032109 0.026120 0.018588 
0.032507 0.026087 0.017785 
0.032886 0.026053 0.016970 
0.033246 0.026018 0.016144 
0.033586 0.025982 0.015307 
0.033907 0.025946 0.014459 
0.026741 0.025404 0.025514 
0.027326 0.025397 0.024873 
0.027892 0.025386 0.024213 
0.028439 0.025371 0.023537 
0.028967 0.025352 0.022843 
0.029475 0.025330 0.022134 
0.029965 0.025304 0.021409 
0.030436 0.025276 0.020669 
0.030887 0.025246 0.019915 
0.031319 0.025213 0.019148 
0.031732 0.025179 0.018367 
0.032126 0.025143 0.017574 
0.032501 0.025106 0.016768 
0.032857 0.025068 0.015952 
0.033194 0.025029 0.015125 
0.033511 0.024990 0.014287 
0.026410 0.024494 0.025198 
0.026988 0.024487 0.024564 
0.027547 0.024475 0.023913 
0.028088 0.024458 0.023245 
0.028609 0.024438 0.022560 
0.029112 0.024414 0.021859 
0.029596 0.024387 0.021143 
0.030061 0.024356 0.020412 
0.030507 0.024323 0.019668 
0.030934 0.024288 0.018909 
0.031342 0.024251 0.018138 
0.031732 0.024212 0.017355 
0.032102 0.024172 0.016560 
0.032454 0.024131 0.015753 
0.032787 0.024089 0.014936 
0.033100 0.024047 0.014109 
0.026069 0.023598 0.024872 
0.026640 0.023590 0.024246 
0.027192 0.023577 0.023603 
0.027725 0.023559 0.022943 
0.028240 0.023537 0.022267 
0.028737 0.023512 0.021576 
0.029215 0.023483 0.020869 
0.029674 0.023450 0.020147 
0.030115 0.023415 0.019412 
0.030537 0.023377 0.018664 
0.030940 0.023337 0.017903 
0.031325 0.023296 0.017129 
0.031691 0.023253 0.016344 
0.032038 0.023209 0.015548 
0.032367 0.023164 0.014742 
0.032677 0.023119 0.013926 
0.025718 0.022716 0.024537 
0.026282 0.022708 0.023920 
0.026827 0.022694 0.023285 
0.027353 0.022675 0.022634 
0.027862 0.022652 0.021967 
0.028352 0.022624 0.021284 
0.028823 0.022593 0.020587 
0.029277 0.022559 0.019875 
0.029712 0.022521 0.019150 
0.030128 0.022481 0.018412 
0.030526 0.022439 0.017661 
0.030906 0.022394 0.016898 
0.031268 0.022349 0.016123 
0.031611 0.022302 0.015338 
0.031935 0.022254 0.014542 
0.032241 0.022206 0.013737 
0.025359 0.021850 0.024194 
0.025915 0.021841 0.023585 
0.026453 0.021826 0.022959 
0.026972 0.021806 0.022317 
0.027474 0.021781 0.021659 
0.027957 0.021752 0.020986 
0.028422 0.021719 0.020299 
0.028870 0.021683 0.019597 
0.029299 0.021643 0.018882 
0.029710 0.021600 0.018153 
0.030103 0.021555 0.017413 
0.030478 0.021508 0.016660 
0.030834 0.021460 0.015897 
0.031173 0.021410 0.015123 
0.031493 0.021360 0.014338 
0.031795 0.021309 0.013544 
0.039468 0.036077 0.001011 
0.039275 0.034986 0.001006 
0.039052 0.033901 0.001000 
0.038802 0.032825 0.000993 
0.038525 0.031757 0.000986 
0.038224 0.030698 0.000978 
0.037899 0.029649 0.000969 
0.037551 0.028610 0.000960 
0.037183 0.027583 0.000950 
0.036795 0.026567 0.000940 
0.036389 0.025565 0.000929 
0.035967 0.024576 0.000918 
0.035529 0.023600 0.000907 
0.035076 0.022640 0.000895 
0.034611 0.021696 0.000883 
0.034135 0.020767 0.000870 
0.039437 0.036077 0.002022 
0.039244 0.034987 0.002011 
0.039021 0.033903 0.001999 
0.038771 0.032827 0.001986 
0.038495 0.031760 0.001971 
0.038193 0.030701 0.001955 
0.037868 0.029653 0.001938 
0.037521 0.028615 0.001919 
0.037153 0.027588 0.001900 
0.036766 0.026573 0.001879 
0.036360 0.025571 0.001858 
0.035938 0.024583 0.001836 
0.035500 0.023608 0.001813 
0.035048 0.022648 0.001789 
0.034583 0.021704 0.001765 
0.034107 0.020777 0.001740 
0.039385 0.036078 0.003031 
0.039192 0.034989 0.003015 
0.038969 0.033906 0.002997 
0.038720 0.032831 0.002977 
0.038443 0.031765 0.002955 
0.038142 0.030707 0.002931 
0.037818 0.029659 0.002905 
0.037471 0.028622 0.002877 
0.037104 0.027597 0.002848 
0.036717 0.026583 0.002818 
0.036311 0.025582 0.002786 
0.035890 0.024594 0.002752 
0.035452 0.023620 0.002718 
0.035001 0.022661 0.002683 
0.034537 0.021718 0.002646 
0.034061 0.020791 0.002609 
0.039312 0.036080 0.004039 
0.039119 0.034991 0.004017 
0.038897 0.033910 0.003993 
0.038647 0.032836 0.003966 
0.038372 0.031771 0.003937 
0.038071 0.030715 0.003905 
0.037747 0.029669 0.003870 
0.037401 0.028633 0.003833 
0.037034 0.027608 0.003795 
0.036648 0.026595 0.003754 
0.036243 0.025596 0.003711 
0.035822 0.024609 0.003667 
0.035385 0.023637 0.003621 
0.034935 0.022679 0.003574 
0.034471 0.021737 0.003526 
0.033997 0.020811 0.003476 
0.039218 0.036081 0.005043 
0.039025 0.034995 0.005017 
0.038804 0.033915 0.004987 
0.038555 0.032843 0.004953 
0.038280 0.031779 0.004916 
0.037980 0.030725 0.004876 
0.037656 0.029680 0.004833 
0.037311 0.028645 0.004787 
0.036945 0.027622 0.004739 
0.036559 0.026611 0.004688 
0.036156 0.025613 0.004635 
0.035735 0.024628 0.004579 
0.035300 0.023657 0.004522 
0.034850 0.022701 0.004463 
0.034388 0.021760 0.004403 
0.033914 0.020836 0.004341 
0.039103 0.036083 0.006045 
0.038911 0.034998 0.006013 
0.038690 0.033921 0.005977 
0.038441 0.032850 0.005936 
0.038167 0.031789 0.005892 
0.037868 0.030736 0.005844 
0.037545 0.029693 0.005793 
0.037201 0.028661 0.005738 
0.036835 0.027639 0.005680 
0.036451 0.026630 0.005619 
0.036048 0.025633 0.005555 
0.035629 0.024650 0.005489 
0.035195 0.023681 0.005420 
0.034746 0.022727 0.005350 
0.034285 0.021788 0.005277 
0.033813 0.020865 0.005203 
0.038967 0.036085 0.007042 
0.038776 0.035003 0.007005 
0.038555 0.033927 0.006963 
0.038308 0.032859 0.006916 
0.038034 0.031799 0.006864 
0.037736 0.030749 0.006808 
0.037414 0.029708 0.006748 
0.037070 0.028678 0.006684 
0.036706 0.027659 0.006617 
0.036323 0.026651 0.006546 
0.035922 0.025657 0.006472 
0.035504 0.024675 0.006394 
0.035071 0.023708 0.006315 
0.034624 0.022756 0.006232 
0.034164 0.021819 0.006148 
0.033693 0.020898 0.006061 
0.038811 0.036088 0.008035 
0.038620 0.035008 0.007993 
0.038400 0.033934 0.007945 
0.038153 0.032869 0.007891 
0.037880 0.031811 0.007832 
0.037583 0.030763 0.007768 
0.037263 0.029725 0.007700 
0.036920 0.028697 0.007627 
0.036557 0.027680 0.007550 
0.036175 0.026675 0.007469 
0.035776 0.025683 0.007384 
0.035359 0.024704 0.007296 
0.034928 0.023738 0.007205 
0.034483 0.022788 0.007111 
0.034025 0.021853 0.007015 
0.033556 0.020935 0.006916 
0.038633 0.036090 0.009022 
0.038443 0.035013 0.008975 
0.038224 0.033942 0.008921 
0.037978 0.032879 0.008861 
0.037706 0.031824 0.008795 
0.037410 0.030779 0.008723 
0.037091 0.029743 0.008646 
0.036750 0.028717 0.008564 
0.036389 0.027703 0.008478 
0.036008 0.026700 0.008387 
0.035610 0.025711 0.008292 
0.035196 0.024734 0.008193 
0.034766 0.023771 0.008091 
0.034322 0.022823 0.007985 
0.033867 0.021891 0.007877 
0.033400 0.020974 0.007766 
0.038435 0.036093 0.010004 
0.038245 0.035018 0.009951 
0.038027 0.033950 0.009892 
0.037782 0.032890 0.009825 
0.037511 0.031838 0.009752 
0.037217 0.030795 0.009672 
0.036899 0.029762 0.009587 
0.036560 0.028739 0.009496 
0.036200 0.027728 0.009400 
0.035821 0.026728 0.009299 
0.035425 0.025741 0.009194 
0.035013 0.024767 0.009084 
0.034585 0.023807 0.008971 
0.034144 0.022861 0.008854 
0.033690 0.021931 0.008734 
0.033225 0.021017 0.008611 
0.038215 0.036096 0.010979 
0.038026 0.035024 0.010921 
0.037809 0.033959 0.010856 
0.037566 0.032902 0.010782 
0.037296 0.031853 0.010702 
0.037003 0.030813 0.010615 
0.036687 0.029782 0.010521 
0.036349 0.028763 0.010422 
0.035992 0.027754 0.010316 
0.035615 0.026757 0.010206 
0.035221 0.025772 0.010090 
0.034810 0.024801 0.009970 
0.034385 0.023844 0.009845 
0.033946 0.022901 0.009717 
0.033495 0.021973 0.009586 
0.033032 0.021062 0.009451 
0.037975 0.036099 0.011946 
0.037787 0.035030 0.011884 
0.037571 0.033968 0.011812 
0.037329 0.032914 0.011733 
0.037061 0.031868 0.011645 
0.036769 0.030831 0.011551 
0.036455 0.029804 0.011449 
0.036119 0.028787 0.011340 
0.035763 0.027781 0.011226 
0.035389 0.026787 0.011105 
0.034997 0.025805 0.010980 
0.034589 0.024837 0.010849 
0.034166 0.023882 0.010714 
0.033730 0.022942 0.010574 
0.033281 0.022018 0.010431 
0.032822 0.021109 0.010284 
0.037714 0.036102 0.012906 
0.037527 0.035037 0.012838 
0.037312 0.033978 0.012761 
0.037071 0.032927 0.012675 
0.036805 0.031884 0.012581 
0.036515 0.030850 0.012479 
0.036202 0.029826 0.012369 
0.035869 0.028812 0.012252 
0.035515 0.027809 0.012128 
0.035143 0.026818 0.011998 
0.034754 0.025840 0.011862 
0.034348 0.024874 0.011721 
0.033928 0.023923 0.011575 
0.033494 0.022985 0.011424 
0.033049 0.022063 0.011269 
0.032592 0.021157 0.011111 
0.037431 0.036106 0.013857 
0.037245 0.035043 0.013784 
0.037032 0.033988 0.013702 
0.036792 0.032940 0.013610 
0.036528 0.031900 0.013508 
0.036240 0.030870 0.013398 
0.035930 0.029849 0.013280 
0.035598 0.028838 0.013155 
0.035247 0.027838 0.013022 
0.034878 0.026850 0.012882 
0.034491 0.025875 0.012736 
0.034088 0.024912 0.012585 
0.033671 0.023964 0.012428 
0.033241 0.023029 0.012266 
0.032798 0.022110 0.012100 
0.032345 0.021207 0.011930 
0.037128 0.036109 0.014799 
0.036943 0.035050 0.014721 
0.036731 0.033998 0.014633 
0.036493 0.032953 0.014535 
0.036231 0.031917 0.014427 
0.035945 0.030889 0.014309 
0.035637 0.029872 0.014183 
0.035308 0.028864 0.014049 
0.034959 0.027868 0.013907 
0.034593 0.026883 0.013758 
0.034209 0.025910 0.013602 
0.033809 0.024951 0.013441 
0.033395 0.024005 0.013273 
0.032968 0.023074 0.013100 
0.032529 0.022158 0.012923 
0.032079 0.021258 0.012741 
0.026546 0.009289 0.000673 
0.026073 0.008720 0.000661 
0.026524 0.009305 0.001346 
0.026051 0.008736 0.001321 
0.026488 0.009330 0.002018 
0.026015 0.008761 0.001981 
0.026437 0.009363 0.002688 
0.025965 0.008795 0.002639 
0.026371 0.009404 0.003357 
0.025900 0.008837 0.003296 
0.026291 0.009453 0.004024 
0.025821 0.008887 0.003951 
0.026196 0.009509 0.004688 
0.025728 0.008943 0.004603 
0.026087 0.009570 0.005350 
0.025620 0.009006 0.005252 
0.025963 0.009637 0.006007 
0.025499 0.009074 0.005897 
0.025825 0.009708 0.006661 
0.025363 0.009146 0.006539 
0.025673 0.009784 0.007311 
0.025213 0.009223 0.007177 
0.025506 0.009863 0.007956 
0.025049 0.009303 0.007810 
0.025325 0.009944 0.008596 
0.024871 0.009386 0.008438 
0.025129 0.010028 0.009230 
0.024679 0.009471 0.009061 
0.024920 0.010112 0.009858 
0.024473 0.009558 0.009678 
0.024696 0.010198 0.010480 
0.024253 0.009645 0.010288 
0.027031 0.009887 0.000686 
0.027008 0.009902 0.001371 
0.026971 0.009926 0.002056 
0.026919 0.009959 0.002739 
0.026852 0.009999 0.003420 
0.026771 0.010047 0.004099 
0.026674 0.010102 0.004776 
0.026563 0.010162 0.005449 
0.026438 0.010227 0.006120 
0.026297 0.010298 0.006786 
0.026142 0.010372 0.007447 
0.025973 0.010449 0.008104 
0.025788 0.010529 0.008756 
0.025590 0.010611 0.009402 
0.025377 0.010694 0.010042 
0.025149 0.010778 0.010675 
0.027524 0.010511 0.000699 
0.027501 0.010526 0.001397 
0.027463 0.010550 0.002094 
0.027410 0.010582 0.002790 
0.027342 0.010622 0.003484 
0.027259 0.010668 0.004176 
0.027162 0.010722 0.004865 
0.027049 0.010781 0.005551 
0.026921 0.010845 0.006234 
0.026778 0.010913 0.006912 
0.026620 0.010986 0.007586 
0.026448 0.011061 0.008256 
0.026261 0.011140 0.008919 
0.026059 0.011220 0.009578 
0.025842 0.011301 0.010229 
0.025610 0.011383 0.010875 
0.028025 0.011162 0.000712 
0.028001 0.011177 0.001423 
0.027963 0.011200 0.002133 
0.027909 0.011231 0.002842 
0.027840 0.011270 0.003549 
0.027756 0.011316 0.004254 
0.027656 0.011368 0.004956 
0.027542 0.011425 0.005655 
0.027412 0.011488 0.006350 
0.027266 0.011555 0.007041 
0.027106 0.011626 0.007728 
0.026931 0.011700 0.008409 
0.026740 0.011776 0.009085 
0.026535 0.011855 0.009756 
0.026314 0.011934 0.010420 
0.026079 0.012014 0.011077 
0.028532 0.011839 0.000725 
0.028508 0.011853 0.001449 
0.028469 0.011875 0.002172 
0.028414 0.011906 0.002894 
0.028344 0.011944 0.003615 
0.028259 0.011988 0.004332 
0.028157 0.012039 0.005047 
0.028041 0.012095 0.005759 
0.027908 0.012156 0.006467 
0.027761 0.012222 0.007171 
0.027598 0.012291 0.007870 
0.027420 0.012363 0.008565 
0.027226 0.012438 0.009253 
0.027017 0.012514 0.009936 
0.026793 0.012592 0.010612 
0.026553 0.012670 0.011281 
0.029044 0.012540 0.000738 
0.029020 0.012554 0.001476 
0.028980 0.012576 0.002212 
0.028925 0.012605 0.002947 
0.028853 0.012642 0.003681 
0.028766 0.012686 0.004412 
0.028663 0.012735 0.005140 
0.028544 0.012790 0.005865 
0.028410 0.012849 0.006586 
0.028260 0.012913 0.007303 
0.028094 0.012980 0.008015 
0.027913 0.013051 0.008722 
0.027716 0.013123 0.009423 
0.027504 0.013198 0.010118 
0.027276 0.013273 0.010806 
0.027032 0.013349 0.011488 
0.029559 0.013266 0.000751 
0.029535 0.013279 0.001502 
0.029495 0.013300 0.002252 
0.029438 0.013329 0.003001 
0.029366 0.013365 0.003748 
0.029277 0.013407 0.004492 
0.029172 0.013455 0.005233 
0.029052 0.013508 0.005971 
0.028915 0.013566 0.006705 
0.028763 0.013628 0.007435 
0.028594 0.013693 0.008160 
0.028410 0.013762 0.008880 
0.028210 0.013832 0.009594 
0.027994 0.013905 0.010301 
0.027762 0.013978 0.011002 
0.027514 0.014052 0.011696 
0.030077 0.014015 0.000765 
0.030052 0.014028 0.001529 
0.030011 0.014048 0.002293 
0.029954 0.014076 0.003055 
0.029880 0.014111 0.003815 
0.029790 0.014152 0.004572 
0.029684 0.014199 0.005327 
0.029561 0.014250 0.006078 
0.029423 0.014306 0.006825 
0.029268 0.014366 0.007568 
0.029096 0.014430 0.008306 
0.028909 0.014496 0.009038 
0.028706 0.014564 0.009765 
0.028486 0.014634 0.010485 
0.028250 0.014705 0.011199 
0.027998 0.014777 0.011905 
0.030595 0.014787 0.000778 
0.030570 0.014799 0.001556 
0.030529 0.014819 0.002333 
0.030471 0.014846 0.003108 
0.030396 0.014880 0.003882 
0.030304 0.014920 0.004653 
0.030196 0.014965 0.005420 
0.030072 0.015014 0.006185 
0.029931 0.015069 0.006945 
0.029773 0.015127 0.007701 
0.029599 0.015188 0.008452 
0.029409 0.015252 0.009197 
0.029202 0.015318 0.009937 
0.028979 0.015386 0.010670 
0.028739 0.015455 0.011396 
0.028483 0.015524 0.012114 
0.031113 0.015581 0.000792 
0.031088 0.015593 0.001583 
0.031046 0.015612 0.002373 
0.030987 0.015638 0.003162 
0.030911 0.015671 0.003949 
0.030818 0.015709 0.004733 
0.030708 0.015752 0.005514 
0.030582 0.015800 0.006292 
0.030438 0.015853 0.007065 
0.030278 0.015909 0.007834 
0.030102 0.015968 0.008598 
0.029908 0.016030 0.009356 
0.029698 0.016094 0.010108 
0.029471 0.016159 0.010854 
0.029228 0.016226 0.011592 
0.028968 0.016293 0.012323 
0.031630 0.016396 0.000805 
0.031604 0.016408 0.001610 
0.031561 0.016426 0.002414 
0.031501 0.016451 0.003216 
0.031424 0.016483 0.004016 
0.031329 0.016519 0.004813 
0.031218 0.016561 0.005608 
0.031090 0.016608 0.006398 
0.030944 0.016658 0.007185 
0.030782 0.016712 0.007967 
0.030602 0.016769 0.008744 
0.030406 0.016828 0.009515 
0.030193 0.016890 0.010279 
0.029962 0.016953 0.011038 
0.029715 0.017017 0.011788 
0.029451 0.017081 0.012531 
0.032143 0.017232 0.000819 
0.032116 0.017243 0.001637 
0.032073 0.017261 0.002454 
0.032012 0.017285 0.003269 
0.031934 0.017315 0.004082 
0.031838 0.017350 0.004893 
0.031725 0.017391 0.005700 
0.031595 0.017435 0.006504 
0.031447 0.017483 0.007304 
0.031282 0.017535 0.008099 
0.031100 0.017590 0.008888 
0.030900 0.017647 0.009672 
0.030684 0.017706 0.010449 
0.030450 0.017766 0.011220 
0.030199 0.017828 0.011983 
0.029931 0.017890 0.012739 
0.032651 0.018088 0.000832 
0.032624 0.018098 0.001663 
0.032580 0.018115 0.002493 
0.032518 0.018139 0.003322 
0.032439 0.018167 0.004148 
0.032342 0.018201 0.004972 
0.032227 0.018240 0.005792 
0.032095 0.018282 0.006609 
0.031945 0.018329 0.007422 
0.031778 0.018378 0.008229 
0.031593 0.018430 0.009032 
0.031391 0.018485 0.009828 
0.031171 0.018542 0.010618 
0.030933 0.018599 0.011401 
0.030679 0.018658 0.012177 
0.030406 0.018718 0.012944 
0.033153 0.018963 0.000845 
0.033126 0.018973 0.001689 
0.033082 0.018989 0.002532 
0.033019 0.019011 0.003374 
0.032938 0.019039 0.004213 
0.032840 0.019071 0.005050 
0.032724 0.019108 0.005883 
0.032589 0.019148 0.006713 
0.032438 0.019192 0.007538 
0.032268 0.019240 0.008359 
0.032080 0.019290 0.009173 
0.031875 0.019342 0.009982 
0.031652 0.019396 0.010785 
0.031411 0.019451 0.011580 
0.031153 0.019507 0.012368 
0.030877 0.019564 0.013147 
0.033648 0.019856 0.000858 
0.033621 0.019866 0.001715 
0.033576 0.019881 0.002571 
0.033512 0.019902 0.003425 
0.033430 0.019928 0.004278 
0.033331 0.019959 0.005127 
0.033213 0.019994 0.005973 
0.033077 0.020033 0.006815 
0.032923 0.020075 0.007653 
0.032751 0.020120 0.008486 
0.032561 0.020167 0.009313 
0.032352 0.020217 0.010134 
0.032126 0.020268 0.010949 
0.031882 0.020320 0.011756 
0.031620 0.020374 0.012556 
0.031340 0.020428 0.013347 
0.019297 0.010569 0.018405 
0.019653 0.011106 0.018745 
0.020018 0.011668 0.019093 
0.020388 0.012255 0.019447 
0.020765 0.012867 0.019807 
0.021146 0.013501 0.020170 
0.021531 0.014159 0.020538 
0.021918 0.014838 0.020908 
0.022307 0.015540 0.021279 
0.022697 0.016262 0.021652 
0.023086 0.017004 0.022023 
0.023474 0.017767 0.022394 
0.023860 0.018548 0.022762 
0.024242 0.019347 0.023127 
0.024620 0.020165 0.023488 
0.024993 0.020999 0.023844 
0.019723 0.010554 0.017939 
0.020087 0.011091 0.018271 
0.020459 0.011653 0.018610 
0.020837 0.012241 0.018956 
0.021222 0.012852 0.019306 
0.021611 0.013487 0.019661 
0.022004 0.014145 0.020019 
0.022400 0.014825 0.020380 
0.022797 0.015527 0.020742 
0.023195 0.016249 0.021105 
0.023593 0.016992 0.021468 
0.023990 0.017755 0.021829 
0.024383 0.018537 0.022189 
0.024774 0.019337 0.022545 
0.025160 0.020154 0.022897 
0.025541 0.020989 0.023244 
0.020135 0.010529 0.017461 
0.020507 0.011066 0.017784 
0.020886 0.011629 0.018115 
0.021272 0.012217 0.018451 
0.021665 0.012829 0.018792 
0.022062 0.013464 0.019138 
0.022463 0.014123 0.019487 
0.022866 0.014804 0.019838 
0.023272 0.015506 0.020191 
0.023678 0.016229 0.020544 
0.024084 0.016973 0.020897 
0.024488 0.017736 0.021249 
0.024890 0.018519 0.021599 
0.025289 0.019320 0.021946 
0.025683 0.020138 0.022289 
0.026071 0.020974 0.022627 
0.020534 0.010495 0.016971 
0.020912 0.011033 0.017285 
0.021299 0.011596 0.017606 
0.021693 0.012185 0.017933 
0.022093 0.012798 0.018265 
0.022497 0.013434 0.018601 
0.022906 0.014093 0.018940 
0.023317 0.014775 0.019282 
0.023731 0.015478 0.019625 
0.024145 0.016202 0.019969 
0.024558 0.016947 0.020312 
0.024970 0.017711 0.020654 
0.025380 0.018495 0.020995 
0.025786 0.019296 0.021332 
0.026187 0.020116 0.021665 
0.026583 0.020953 0.021994 
0.020919 0.010452 0.016468 
0.021304 0.010991 0.016774 
0.021698 0.011556 0.017085 
0.022099 0.012145 0.017403 
0.022506 0.012759 0.017725 
0.022918 0.013396 0.018051 
0.023334 0.014056 0.018381 
0.023753 0.014739 0.018712 
0.024174 0.015443 0.019046 
0.024595 0.016169 0.019379 
0.025016 0.016914 0.019713 
0.025436 0.017680 0.020045 
0.025853 0.018465 0.020375 
0.026266 0.019268 0.020703 
0.026675 0.020089 0.021026 
0.027078 0.020927 0.021346 
0.021291 0.010403 0.015955 
0.021683 0.010943 0.016251 
0.022083 0.011508 0.016553 
0.022491 0.012098 0.016861 
0.022905 0.012713 0.017173 
0.023324 0.013351 0.017489 
0.023747 0.014013 0.017808 
0.024173 0.014697 0.018130 
0.024601 0.015402 0.018453 
0.025029 0.016129 0.018776 
0.025458 0.016876 0.019099 
0.025884 0.017643 0.019421 
0.026309 0.018429 0.019742 
0.026729 0.019234 0.020059 
0.027145 0.020056 0.020373 
0.027554 0.020896 0.020682 
0.021649 0.010346 0.015430 
0.022047 0.010887 0.015717 
0.022454 0.011454 0.016009 
0.022868 0.012045 0.016307 
0.023289 0.012661 0.016609 
0.023714 0.013301 0.016915 
0.024144 0.013963 0.017224 
0.024577 0.014649 0.017535 
0.025012 0.015356 0.017847 
0.025448 0.016084 0.018160 
0.025883 0.016833 0.018473 
0.026316 0.017601 0.018784 
0.026747 0.018389 0.019094 
0.027175 0.019195 0.019401 
0.027597 0.020020 0.019705 
0.028013 0.020861 0.020004 
0.021993 0.010284 0.014895 
0.022397 0.010826 0.015172 
0.022810 0.011393 0.015454 
0.023231 0.011986 0.015742 
0.023658 0.012603 0.016034 
0.024090 0.013244 0.016329 
0.024527 0.013909 0.016627 
0.024966 0.014596 0.016928 
0.025408 0.015304 0.017229 
0.025850 0.016034 0.017532 
0.026292 0.016785 0.017834 
0.026732 0.017555 0.018135 
0.027169 0.018345 0.018434 
0.027603 0.019153 0.018730 
0.028032 0.019979 0.019023 
0.028454 0.020822 0.019313 
0.022324 0.010216 0.014350 
0.022734 0.010759 0.014617 
0.023153 0.011328 0.014889 
0.023579 0.011922 0.015166 
0.024012 0.012541 0.015447 
0.024451 0.013183 0.015732 
0.024894 0.013849 0.016020 
0.025340 0.014538 0.016309 
0.025787 0.015248 0.016600 
0.026236 0.015980 0.016891 
0.026684 0.016732 0.017182 
0.027130 0.017505 0.017472 
0.027574 0.018296 0.017760 
0.028014 0.019106 0.018046 
0.028449 0.019935 0.018329 
0.028878 0.020780 0.018608 
0.022641 0.010143 0.013796 
0.023056 0.010687 0.014052 
0.023481 0.011258 0.014314 
0.023913 0.011853 0.014580 
0.024352 0.012474 0.014851 
0.024797 0.013118 0.015125 
0.025245 0.013786 0.015401 
0.025697 0.014476 0.015679 
0.026151 0.015188 0.015959 
0.026606 0.015922 0.016239 
0.027060 0.016676 0.016519 
0.027512 0.017451 0.016798 
0.027962 0.018244 0.017075 
0.028408 0.019057 0.017350 
0.028849 0.019888 0.017622 
0.029283 0.020736 0.017890 
0.022944 0.010066 0.013232 
0.023365 0.010612 0.013478 
0.023795 0.011184 0.013729 
0.024233 0.011781 0.013984 
0.024677 0.012403 0.014244 
0.025127 0.013049 0.014507 
0.025582 0.013718 0.014772 
0.026039 0.014410 0.015039 
0.026499 0.015125 0.015307 
0.026959 0.015861 0.015576 
0.027419 0.016617 0.015845 
0.027877 0.017394 0.016112 
0.028333 0.018190 0.016378 
0.028784 0.019005 0.016642 
0.029231 0.019838 0.016903 
0.029671 0.020688 0.017160 
0.023233 0.009986 0.012659 
0.023659 0.010533 0.012894 
0.024094 0.011106 0.013135 
0.024537 0.011705 0.013379 
0.024987 0.012329 0.013628 
0.025443 0.012977 0.013879 
0.025903 0.013648 0.014133 
0.026366 0.014342 0.014389 
0.026831 0.015059 0.014646 
0.027297 0.015797 0.014903 
0.027762 0.016555 0.015160 
0.028226 0.017334 0.015416 
0.028687 0.018133 0.015670 
0.029144 0.018950 0.015923 
0.029595 0.019785 0.016172 
0.030040 0.020638 0.016418 
0.023509 0.009903 0.012078 
0.023940 0.010452 0.012303 
0.024380 0.011027 0.012532 
0.024828 0.011627 0.012765 
0.025282 0.012252 0.013002 
0.025743 0.012902 0.013242 
0.026208 0.013575 0.013485 
0.026676 0.014272 0.013729 
0.027147 0.014990 0.013974 
0.027618 0.015730 0.014219 
0.028088 0.016491 0.014465 
0.028557 0.017273 0.014709 
0.029023 0.018074 0.014952 
0.029485 0.018893 0.015193 
0.029942 0.019732 0.015431 
0.030392 0.020587 0.015666 
0.023771 0.009818 0.011489 
0.024206 0.010368 0.011703 
0.024650 0.010945 0.011921 
0.025103 0.011547 0.012143 
0.025563 0.012174 0.012369 
0.026028 0.012826 0.012597 
0.026498 0.013501 0.012827 
0.026971 0.014199 0.013060 
0.027447 0.014920 0.013293 
0.027923 0.015663 0.013526 
0.028398 0.016426 0.013760 
0.028872 0.017210 0.013992 
0.029343 0.018013 0.014223 
0.029810 0.018836 0.014453 
0.030271 0.019676 0.014679 
0.030726 0.020535 0.014903 
0.024019 0.009732 0.010892 
0.024458 0.010283 0.011095 
0.024907 0.010861 0.011302 
0.025364 0.011465 0.011513 
0.025828 0.012095 0.011726 
0.026298 0.012748 0.011943 
0.026773 0.013425 0.012162 
0.027251 0.014126 0.012382 
0.027731 0.014849 0.012603 
0.028211 0.015594 0.012824 
0.028691 0.016360 0.013046 
0.029170 0.017146 0.013266 
0.029645 0.017952 0.013486 
0.030117 0.018777 0.013703 
0.030583 0.019620 0.013918 
0.031042 0.020481 0.014130 
0.000862 0.068719 -0.033200 
0.000872 0.068035 -0.033588 
0.000000 0.068040 -0.033597 
0.000000 0.068725 -0.033208 
0.000882 0.067320 -0.033974 
0.000000 0.067325 -0.033982 
0.000892 0.066574 -0.034356 
0.000000 0.066579 -0.034364 
0.000901 0.065799 -0.034733 
0.000000 0.065804 -0.034741 
0.000910 0.064997 -0.035104 
0.000000 0.065001 -0.035113 
0.000920 0.064167 -0.035470 
0.000000 0.064172 -0.035479 
0.000929 0.063313 -0.035828 
0.000000 0.063317 -0.035837 
0.000937 0.062434 -0.036177 
0.000000 0.062439 -0.036186 
0.000946 0.061532 -0.036517 
0.000000 0.061537 -0.036527 
0.000954 0.060609 -0.036847 
0.000000 0.060613 -0.036857 
0.000962 0.059665 -0.037166 
0.000000 0.059669 -0.037176 
0.000969 0.058701 -0.037473 
0.000000 0.058705 -0.037483 
0.000976 0.057719 -0.037767 
0.000000 0.057723 -0.037777 
0.000983 0.056720 -0.038047 
0.000000 0.056724 -0.038056 
0.000990 0.055705 -0.038312 
0.000000 0.055709 -0.038322 
0.000996 0.054676 -0.038561 
0.000000 0.054679 -0.038571 
0.001724 0.068704 -0.033175 
0.001744 0.068020 -0.033563 
0.001763 0.067305 -0.033948 
0.001783 0.066559 -0.034330 
0.001802 0.065785 -0.034707 
0.001820 0.064983 -0.035078 
0.001839 0.064154 -0.035443 
0.001857 0.063300 -0.035801 
0.001874 0.062421 -0.036150 
0.001891 0.061520 -0.036490 
0.001907 0.060597 -0.036820 
0.001923 0.059653 -0.037138 
0.001938 0.058690 -0.037445 
0.001952 0.057708 -0.037738 
0.001966 0.056710 -0.038018 
0.001978 0.055696 -0.038283 
0.001990 0.054666 -0.038531 
0.002584 0.068679 -0.033134 
0.002614 0.067996 -0.033521 
0.002643 0.067281 -0.033906 
0.002672 0.066536 -0.034287 
0.002701 0.065762 -0.034663 
0.002729 0.064960 -0.035034 
0.002756 0.064132 -0.035399 
0.002783 0.063279 -0.035756 
0.002809 0.062401 -0.036104 
0.002835 0.061500 -0.036444 
0.002859 0.060578 -0.036773 
0.002883 0.059635 -0.037091 
0.002905 0.058672 -0.037397 
0.002927 0.057691 -0.037690 
0.002947 0.056694 -0.037969 
0.002966 0.055680 -0.038234 
0.002984 0.054652 -0.038482 
0.003443 0.068646 -0.033076 
0.003483 0.067963 -0.033463 
0.003522 0.067249 -0.033847 
0.003560 0.066504 -0.034227 
0.003598 0.065731 -0.034602 
0.003636 0.064930 -0.034973 
0.003672 0.064103 -0.035336 
0.003708 0.063250 -0.035692 
0.003743 0.062373 -0.036040 
0.003777 0.061473 -0.036379 
0.003809 0.060552 -0.036708 
0.003840 0.059610 -0.037025 
0.003870 0.058648 -0.037331 
0.003899 0.057668 -0.037623 
0.003926 0.056672 -0.037901 
0.003952 0.055659 -0.038165 
0.003975 0.054632 -0.038413 
0.004299 0.068604 -0.033001 
0.004349 0.067922 -0.033387 
0.004398 0.067209 -0.033770 
0.004446 0.066465 -0.034149 
0.004494 0.065693 -0.034524 
0.004540 0.064893 -0.034893 
0.004586 0.064066 -0.035256 
0.004630 0.063214 -0.035611 
0.004674 0.062339 -0.035958 
0.004716 0.061440 -0.036296 
0.004757 0.060520 -0.036624 
0.004796 0.059579 -0.036940 
0.004833 0.058618 -0.037245 
0.004869 0.057640 -0.037536 
0.004903 0.056644 -0.037814 
0.004935 0.055633 -0.038077 
0.004964 0.054607 -0.038324 
0.005153 0.068556 -0.032910 
0.005212 0.067874 -0.033294 
0.005271 0.067161 -0.033676 
0.005329 0.066419 -0.034054 
0.005386 0.065647 -0.034428 
0.005441 0.064848 -0.034796 
0.005496 0.064023 -0.035157 
0.005550 0.063173 -0.035512 
0.005602 0.062298 -0.035857 
0.005652 0.061401 -0.036194 
0.005701 0.060482 -0.036521 
0.005748 0.059542 -0.036836 
0.005793 0.058583 -0.037140 
0.005835 0.057606 -0.037430 
0.005876 0.056612 -0.037707 
0.005914 0.055603 -0.037969 
0.005950 0.054578 -0.038215 
0.006003 0.068500 -0.032801 
0.006072 0.067820 -0.033185 
0.006140 0.067108 -0.033565 
0.006208 0.066366 -0.033942 
0.006274 0.065596 -0.034314 
0.006339 0.064798 -0.034681 
0.006403 0.063974 -0.035041 
0.006465 0.063125 -0.035394 
0.006526 0.062252 -0.035738 
0.006584 0.061356 -0.036074 
0.006641 0.060438 -0.036399 
0.006696 0.059500 -0.036713 
0.006748 0.058543 -0.037015 
0.006798 0.057568 -0.037305 
0.006845 0.056576 -0.037580 
0.006890 0.055568 -0.037841 
0.006931 0.054546 -0.038086 
0.006849 0.068439 -0.032676 
0.006927 0.067759 -0.033058 
0.007005 0.067048 -0.033437 
0.007082 0.066308 -0.033812 
0.007158 0.065539 -0.034182 
0.007232 0.064743 -0.034547 
0.007305 0.063920 -0.034906 
0.007376 0.063072 -0.035257 
0.007445 0.062201 -0.035600 
0.007512 0.061306 -0.035934 
0.007577 0.060391 -0.036258 
0.007639 0.059454 -0.036571 
0.007699 0.058499 -0.036872 
0.007756 0.057526 -0.037160 
0.007810 0.056535 -0.037434 
0.007861 0.055529 -0.037693 
0.007908 0.054509 -0.037937 
0.007690 0.068372 -0.032534 
0.007778 0.067693 -0.032914 
0.007866 0.066984 -0.033291 
0.007952 0.066245 -0.033664 
0.008037 0.065477 -0.034033 
0.008121 0.064682 -0.034396 
0.008202 0.063861 -0.034753 
0.008282 0.063015 -0.035103 
0.008360 0.062145 -0.035444 
0.008435 0.061253 -0.035776 
0.008508 0.060339 -0.036098 
0.008578 0.059404 -0.036409 
0.008645 0.058451 -0.036709 
0.008709 0.057480 -0.036995 
0.008770 0.056491 -0.037268 
0.008827 0.055488 -0.037526 
0.008880 0.054469 -0.037768 
0.008526 0.068300 -0.032374 
0.008624 0.067623 -0.032752 
0.008721 0.066915 -0.033127 
0.008817 0.066177 -0.033499 
0.008911 0.065411 -0.033865 
0.009003 0.064618 -0.034227 
0.009094 0.063798 -0.034582 
0.009183 0.062954 -0.034929 
0.009269 0.062086 -0.035269 
0.009352 0.061195 -0.035599 
0.009433 0.060283 -0.035919 
0.009511 0.059351 -0.036229 
0.009585 0.058399 -0.036526 
0.009656 0.057430 -0.036811 
0.009723 0.056444 -0.037082 
0.009786 0.055443 -0.037338 
0.009846 0.054427 -0.037579 
0.009356 0.068225 -0.032198 
0.009463 0.067549 -0.032573 
0.009570 0.066842 -0.032946 
0.009675 0.066106 -0.033315 
0.009778 0.065341 -0.033680 
0.009880 0.064549 -0.034039 
0.009980 0.063732 -0.034392 
0.010077 0.062889 -0.034737 
0.010171 0.062023 -0.035075 
0.010263 0.061134 -0.035403 
0.010351 0.060224 -0.035721 
0.010437 0.059294 -0.036028 
0.010518 0.058345 -0.036324 
0.010596 0.057378 -0.036607 
0.010670 0.056395 -0.036876 
0.010740 0.055396 -0.037131 
0.010805 0.054382 -0.037370 
0.010179 0.068146 -0.032004 
0.010296 0.067471 -0.032377 
0.010412 0.066766 -0.032748 
0.010527 0.066031 -0.033114 
0.010639 0.065268 -0.033477 
0.010750 0.064478 -0.033833 
0.010858 0.063662 -0.034184 
0.010964 0.062822 -0.034527 
0.011067 0.061957 -0.034862 
0.011167 0.061071 -0.035188 
0.011263 0.060163 -0.035504 
0.011356 0.059235 -0.035809 
0.011445 0.058288 -0.036102 
0.011529 0.057324 -0.036383 
0.011610 0.056343 -0.036650 
0.011685 0.055346 -0.036903 
0.011756 0.054335 -0.037141 
0.010996 0.068065 -0.031793 
0.011122 0.067391 -0.032163 
0.011248 0.066687 -0.032531 
0.011371 0.065954 -0.032895 
0.011493 0.065193 -0.033255 
0.011612 0.064404 -0.033609 
0.011729 0.063590 -0.033957 
0.011844 0.062752 -0.034298 
0.011955 0.061890 -0.034630 
0.012063 0.061005 -0.034954 
0.012167 0.060100 -0.035267 
0.012267 0.059174 -0.035570 
0.012363 0.058230 -0.035861 
0.012455 0.057268 -0.036140 
0.012542 0.056289 -0.036405 
0.012623 0.055295 -0.036655 
0.012700 0.054287 -0.036891 
0.011805 0.067981 -0.031564 
0.011941 0.067309 -0.031932 
0.012075 0.066606 -0.032297 
0.012208 0.065875 -0.032659 
0.012339 0.065115 -0.033015 
0.012467 0.064329 -0.033367 
0.012592 0.063517 -0.033712 
0.012715 0.062680 -0.034050 
0.012835 0.061820 -0.034379 
0.012950 0.060938 -0.034700 
0.013062 0.060035 -0.035011 
0.013170 0.059112 -0.035311 
0.013273 0.058170 -0.035600 
0.013372 0.057210 -0.035876 
0.013465 0.056234 -0.036139 
0.013553 0.055243 -0.036388 
0.013635 0.054238 -0.036621 
0.012606 0.067896 -0.031318 
0.012751 0.067225 -0.031683 
0.012894 0.066525 -0.032045 
0.013036 0.065795 -0.032404 
0.013176 0.065037 -0.032757 
0.013313 0.064252 -0.033106 
0.013447 0.063442 -0.033448 
0.013578 0.062607 -0.033783 
0.013705 0.061750 -0.034110 
0.013829 0.060870 -0.034427 
0.013949 0.059969 -0.034736 
0.014064 0.059048 -0.035033 
0.014174 0.058109 -0.035319 
0.014279 0.057152 -0.035593 
0.014379 0.056178 -0.035853 
0.014473 0.055190 -0.036099 
0.014561 0.054187 -0.036331 
0.013398 0.067811 -0.031055 
0.013552 0.067141 -0.031416 
0.013705 0.066442 -0.031775 
0.013855 0.065714 -0.032130 
0.014004 0.064958 -0.032481 
0.014149 0.064175 -0.032826 
0.014292 0.063367 -0.033165 
0.014431 0.062534 -0.033497 
0.014567 0.061678 -0.033821 
0.014698 0.060801 -0.034136 
0.014826 0.059902 -0.034441 
0.014948 0.058984 -0.034735 
0.015065 0.058047 -0.035019 
0.015177 0.057093 -0.035289 
0.015283 0.056122 -0.035547 
0.015383 0.055136 -0.035791 
0.015476 0.054136 -0.036020 
0.000000 0.038277 -0.039773 
0.001020 0.038277 -0.039763 
0.001016 0.037174 -0.039631 
0.000000 0.037174 -0.039642 
0.002039 0.038277 -0.039731 
0.002031 0.037174 -0.039600 
0.003056 0.038276 -0.039679 
0.003045 0.037174 -0.039548 
0.004072 0.038274 -0.039606 
0.004057 0.037174 -0.039475 
0.005085 0.038273 -0.039511 
0.005066 0.037174 -0.039380 
0.006094 0.038271 -0.039396 
0.006072 0.037174 -0.039265 
0.007100 0.038269 -0.039260 
0.007074 0.037174 -0.039129 
0.008101 0.038266 -0.039102 
0.008071 0.037174 -0.038972 
0.009097 0.038264 -0.038924 
0.009063 0.037174 -0.038794 
0.010086 0.038261 -0.038725 
0.010049 0.037174 -0.038595 
0.011069 0.038258 -0.038504 
0.011028 0.037174 -0.038375 
0.012044 0.038255 -0.038263 
0.012000 0.037174 -0.038134 
0.013012 0.038252 -0.038000 
0.012964 0.037174 -0.037872 
0.013971 0.038248 -0.037716 
0.013919 0.037174 -0.037589 
0.014920 0.038245 -0.037411 
0.014865 0.037174 -0.037285 
0.015859 0.038242 -0.037085 
0.015801 0.037174 -0.036959 
0.000000 0.039385 -0.039874 
0.001023 0.039385 -0.039863 
0.002045 0.039383 -0.039832 
0.003065 0.039381 -0.039779 
0.004084 0.039379 -0.039706 
0.005100 0.039376 -0.039612 
0.006112 0.039372 -0.039496 
0.007121 0.039367 -0.039360 
0.008125 0.039363 -0.039202 
0.009123 0.039357 -0.039024 
0.010115 0.039352 -0.038824 
0.011101 0.039346 -0.038603 
0.012080 0.039340 -0.038361 
0.013050 0.039333 -0.038098 
0.014011 0.039327 -0.037814 
0.014963 0.039320 -0.037509 
0.015905 0.039314 -0.037182 
0.000000 0.040496 -0.039944 
0.001025 0.040495 -0.039934 
0.002049 0.040493 -0.039903 
0.003072 0.040490 -0.039850 
0.004093 0.040486 -0.039777 
0.005111 0.040482 -0.039682 
0.006126 0.040476 -0.039567 
0.007136 0.040469 -0.039431 
0.008142 0.040462 -0.039273 
0.009143 0.040454 -0.039094 
0.010137 0.040446 -0.038895 
0.011125 0.040437 -0.038674 
0.012106 0.040428 -0.038432 
0.013078 0.040418 -0.038168 
0.014042 0.040409 -0.037884 
0.014996 0.040399 -0.037579 
0.015940 0.040389 -0.037252 
0.000000 0.041608 -0.039986 
0.001026 0.041607 -0.039976 
0.002052 0.041605 -0.039944 
0.003076 0.041601 -0.039892 
0.004099 0.041596 -0.039819 
0.005118 0.041589 -0.039724 
0.006135 0.041582 -0.039609 
0.007147 0.041573 -0.039473 
0.008154 0.041564 -0.039315 
0.009156 0.041553 -0.039137 
0.010152 0.041542 -0.038937 
0.011141 0.041530 -0.038716 
0.012123 0.041518 -0.038474 
0.013097 0.041505 -0.038211 
0.014062 0.041492 -0.037927 
0.015017 0.041479 -0.037621 
0.015963 0.041466 -0.037294 
0.000000 0.042722 -0.040000 
0.001027 0.042720 -0.039990 
0.002054 0.042717 -0.039958 
0.003079 0.042713 -0.039906 
0.004102 0.042706 -0.039833 
0.005122 0.042698 -0.039739 
0.006139 0.042689 -0.039623 
0.007152 0.042678 -0.039487 
0.008160 0.042666 -0.039330 
0.009163 0.042653 -0.039151 
0.010160 0.042639 -0.038952 
0.011150 0.042624 -0.038731 
0.012132 0.042609 -0.038490 
0.013107 0.042593 -0.038227 
0.014072 0.042577 -0.037943 
0.015028 0.042561 -0.037637 
0.015974 0.042544 -0.037311 
0.000000 0.043834 -0.039987 
0.001027 0.043833 -0.039976 
0.002054 0.043830 -0.039945 
0.003079 0.043824 -0.039893 
0.004102 0.043816 -0.039820 
0.005123 0.043806 -0.039726 
0.006140 0.043795 -0.039611 
0.007153 0.043782 -0.039475 
0.008161 0.043768 -0.039318 
0.009164 0.043752 -0.039140 
0.010161 0.043736 -0.038941 
0.011151 0.043718 -0.038721 
0.012134 0.043700 -0.038479 
0.013108 0.043681 -0.038217 
0.014074 0.043662 -0.037933 
0.015030 0.043642 -0.037628 
0.015976 0.043622 -0.037302 
0.000000 0.044946 -0.039947 
0.001027 0.044944 -0.039937 
0.002053 0.044940 -0.039906 
0.003077 0.044933 -0.039854 
0.004100 0.044924 -0.039781 
0.005120 0.044913 -0.039687 
0.006137 0.044900 -0.039572 
0.007149 0.044885 -0.039437 
0.008157 0.044868 -0.039280 
0.009159 0.044850 -0.039103 
0.010155 0.044831 -0.038904 
0.011145 0.044811 -0.038684 
0.012127 0.044789 -0.038444 
0.013101 0.044767 -0.038182 
0.014066 0.044745 -0.037899 
0.015021 0.044722 -0.037595 
0.015966 0.044698 -0.037269 
0.000000 0.046054 -0.039883 
0.001026 0.046053 -0.039872 
0.002050 0.046048 -0.039841 
0.003074 0.046040 -0.039789 
0.004095 0.046030 -0.039717 
0.005114 0.046017 -0.039623 
0.006129 0.046002 -0.039509 
0.007141 0.045985 -0.039374 
0.008147 0.045966 -0.039218 
0.009148 0.045946 -0.039041 
0.010143 0.045923 -0.038843 
0.011132 0.045900 -0.038624 
0.012112 0.045876 -0.038384 
0.013085 0.045851 -0.038123 
0.014049 0.045825 -0.037841 
0.015003 0.045799 -0.037537 
0.015947 0.045772 -0.037213 
0.000000 0.047159 -0.039794 
0.001024 0.047157 -0.039783 
0.002047 0.047152 -0.039752 
0.003068 0.047143 -0.039701 
0.004088 0.047132 -0.039629 
0.005105 0.047117 -0.039536 
0.006119 0.047100 -0.039422 
0.007128 0.047081 -0.039287 
0.008133 0.047060 -0.039132 
0.009132 0.047037 -0.038955 
0.010125 0.047012 -0.038758 
0.011112 0.046986 -0.038540 
0.012091 0.046959 -0.038301 
0.013062 0.046931 -0.038041 
0.014024 0.046902 -0.037759 
0.014976 0.046872 -0.037457 
0.015918 0.046843 -0.037134 
0.000000 0.048258 -0.039681 
0.001021 0.048256 -0.039671 
0.002042 0.048250 -0.039640 
0.003061 0.048241 -0.039589 
0.004078 0.048228 -0.039517 
0.005093 0.048212 -0.039425 
0.006104 0.048193 -0.039311 
0.007111 0.048172 -0.039177 
0.008114 0.048149 -0.039022 
0.009110 0.048123 -0.038847 
0.010101 0.048096 -0.038651 
0.011085 0.048067 -0.038433 
0.012062 0.048037 -0.038195 
0.013030 0.048006 -0.037936 
0.013990 0.047974 -0.037656 
0.014940 0.047941 -0.037355 
0.015880 0.047908 -0.037033 
0.000000 0.049351 -0.039547 
0.001018 0.049349 -0.039537 
0.002036 0.049342 -0.039506 
0.003052 0.049332 -0.039455 
0.004066 0.049318 -0.039383 
0.005078 0.049301 -0.039291 
0.006086 0.049280 -0.039179 
0.007090 0.049257 -0.039045 
0.008090 0.049231 -0.038891 
0.009084 0.049203 -0.038717 
0.010072 0.049173 -0.038521 
0.011053 0.049142 -0.038305 
0.012026 0.049109 -0.038068 
0.012992 0.049074 -0.037810 
0.013949 0.049039 -0.037532 
0.014896 0.049004 -0.037232 
0.015833 0.048968 -0.036911 
0.000000 0.050437 -0.039391 
0.001015 0.050434 -0.039381 
0.002029 0.050427 -0.039350 
0.003042 0.050416 -0.039299 
0.004052 0.050401 -0.039228 
0.005060 0.050382 -0.039137 
0.006065 0.050360 -0.039025 
0.007066 0.050334 -0.038892 
0.008062 0.050306 -0.038739 
0.009052 0.050276 -0.038565 
0.010036 0.050243 -0.038371 
0.011014 0.050209 -0.038156 
0.011984 0.050173 -0.037920 
0.012947 0.050136 -0.037664 
0.013900 0.050098 -0.037387 
0.014844 0.050059 -0.037089 
0.015778 0.050020 -0.036770 
0.000000 0.051513 -0.039214 
0.001011 0.051511 -0.039204 
0.002021 0.051503 -0.039174 
0.003029 0.051491 -0.039123 
0.004036 0.051475 -0.039053 
0.005040 0.051454 -0.038962 
0.006041 0.051430 -0.038850 
0.007037 0.051403 -0.038719 
0.008029 0.051373 -0.038567 
0.009016 0.051340 -0.038394 
0.009996 0.051305 -0.038201 
0.010970 0.051268 -0.037987 
0.011936 0.051229 -0.037753 
0.012894 0.051189 -0.037498 
0.013844 0.051148 -0.037222 
0.014784 0.051107 -0.036926 
0.015714 0.051065 -0.036609 
0.000000 0.052580 -0.039018 
0.001006 0.052577 -0.039008 
0.002012 0.052569 -0.038978 
0.003016 0.052556 -0.038928 
0.004018 0.052538 -0.038858 
0.005017 0.052517 -0.038767 
0.006013 0.052491 -0.038657 
0.007005 0.052462 -0.038526 
0.007993 0.052430 -0.038375 
0.008975 0.052395 -0.038203 
0.009951 0.052357 -0.038012 
0.010920 0.052317 -0.037799 
0.011882 0.052276 -0.037567 
0.012836 0.052233 -0.037313 
0.013781 0.052189 -0.037039 
0.014716 0.052145 -0.036745 
0.015642 0.052100 -0.036430 
0.000000 0.053636 -0.038803 
0.001001 0.053633 -0.038793 
0.002001 0.053624 -0.038764 
0.003001 0.053610 -0.038714 
0.003998 0.053591 -0.038644 
0.004992 0.053568 -0.038555 
0.005983 0.053541 -0.038445 
0.006970 0.053510 -0.038315 
0.007952 0.053475 -0.038165 
0.008929 0.053438 -0.037995 
0.009900 0.053398 -0.037804 
0.010865 0.053356 -0.037593 
0.011822 0.053312 -0.037362 
0.012771 0.053266 -0.037111 
0.013711 0.053219 -0.036839 
0.014642 0.053172 -0.036546 
0.015563 0.053124 -0.036233 
0.028190 0.037174 -0.029541 
0.028291 0.038206 -0.029646 
0.028371 0.039243 -0.029728 
0.028429 0.040283 -0.029789 
0.028467 0.041325 -0.029828 
0.028485 0.042368 -0.029846 
0.028484 0.043411 -0.029845 
0.028465 0.044453 -0.029824 
0.028427 0.045492 -0.029784 
0.028373 0.046529 -0.029726 
0.028302 0.047561 -0.029651 
0.028215 0.048587 -0.029559 
0.028113 0.049607 -0.029452 
0.027996 0.050619 -0.029328 
0.027865 0.051622 -0.029190 
0.027720 0.052615 -0.029038 
0.027563 0.053597 -0.028873 
0.027484 0.037174 -0.030184 
0.027583 0.038207 -0.030291 
0.027660 0.039244 -0.030375 
0.027717 0.040284 -0.030436 
0.027755 0.041327 -0.030476 
0.027773 0.042371 -0.030495 
0.027772 0.043414 -0.030493 
0.027753 0.044457 -0.030471 
0.027717 0.045497 -0.030430 
0.027664 0.046534 -0.030370 
0.027595 0.047567 -0.030293 
0.027511 0.048594 -0.030199 
0.027411 0.049614 -0.030089 
0.027298 0.050626 -0.029962 
0.027170 0.051630 -0.029821 
0.027030 0.052624 -0.029666 
0.026877 0.053606 -0.029496 
0.026758 0.037174 -0.030805 
0.026854 0.038208 -0.030915 
0.026930 0.039246 -0.031000 
0.026986 0.040287 -0.031062 
0.027022 0.041331 -0.031103 
0.027040 0.042375 -0.031121 
0.027040 0.043420 -0.031119 
0.027022 0.044463 -0.031096 
0.026987 0.045505 -0.031054 
0.026936 0.046543 -0.030993 
0.026869 0.047576 -0.030914 
0.026787 0.048604 -0.030817 
0.026690 0.049625 -0.030704 
0.026580 0.050639 -0.030575 
0.026456 0.051643 -0.030431 
0.026319 0.052638 -0.030271 
0.026170 0.053621 -0.030098 
0.026012 0.037174 -0.031406 
0.026106 0.038209 -0.031517 
0.026180 0.039249 -0.031604 
0.026234 0.040291 -0.031667 
0.026270 0.041336 -0.031708 
0.026288 0.042382 -0.031726 
0.026287 0.043428 -0.031723 
0.026270 0.044472 -0.031700 
0.026237 0.045515 -0.031656 
0.026187 0.046554 -0.031594 
0.026122 0.047589 -0.031513 
0.026043 0.048618 -0.031414 
0.025949 0.049640 -0.031298 
0.025842 0.050655 -0.031166 
0.025722 0.051661 -0.031019 
0.025589 0.052656 -0.030856 
0.025445 0.053641 -0.030679 
0.025248 0.037174 -0.031985 
0.025339 0.038211 -0.032098 
0.025411 0.039252 -0.032186 
0.025464 0.040296 -0.032250 
0.025499 0.041342 -0.032291 
0.025516 0.042390 -0.032309 
0.025516 0.043437 -0.032306 
0.025500 0.044484 -0.032282 
0.025467 0.045528 -0.032237 
0.025420 0.046568 -0.032173 
0.025357 0.047605 -0.032090 
0.025280 0.048635 -0.031989 
0.025189 0.049659 -0.031871 
0.025086 0.050675 -0.031736 
0.024969 0.051682 -0.031585 
0.024841 0.052680 -0.031419 
0.024701 0.053666 -0.031239 
0.024466 0.037174 -0.032543 
0.024554 0.038213 -0.032658 
0.024624 0.039256 -0.032747 
0.024676 0.040302 -0.032812 
0.024710 0.041350 -0.032853 
0.024727 0.042399 -0.032871 
0.024727 0.043449 -0.032868 
0.024711 0.044497 -0.032842 
0.024680 0.045543 -0.032797 
0.024634 0.046585 -0.032731 
0.024573 0.047623 -0.032646 
0.024499 0.048656 -0.032543 
0.024411 0.049681 -0.032423 
0.024311 0.050699 -0.032285 
0.024198 0.051708 -0.032131 
0.024074 0.052707 -0.031962 
0.023939 0.053694 -0.031778 
0.023666 0.037174 -0.033080 
0.023752 0.038215 -0.033196 
0.023820 0.039260 -0.033286 
0.023870 0.040308 -0.033352 
0.023903 0.041359 -0.033393 
0.023919 0.042410 -0.033412 
0.023920 0.043462 -0.033407 
0.023905 0.044512 -0.033382 
0.023875 0.045560 -0.033335 
0.023830 0.046604 -0.033268 
0.023772 0.047645 -0.033181 
0.023700 0.048679 -0.033076 
0.023616 0.049707 -0.032953 
0.023519 0.050726 -0.032812 
0.023410 0.051737 -0.032655 
0.023290 0.052738 -0.032483 
0.023159 0.053727 -0.032295 
0.022850 0.037174 -0.033596 
0.022933 0.038217 -0.033713 
0.022999 0.039265 -0.033804 
0.023047 0.040315 -0.033871 
0.023079 0.041368 -0.033912 
0.023095 0.042422 -0.033931 
0.023096 0.043476 -0.033926 
0.023082 0.044529 -0.033899 
0.023053 0.045579 -0.033851 
0.023010 0.046626 -0.033782 
0.022954 0.047668 -0.033694 
0.022885 0.048705 -0.033587 
0.022803 0.049735 -0.033461 
0.022710 0.050757 -0.033318 
0.022605 0.051770 -0.033159 
0.022489 0.052772 -0.032983 
0.022363 0.053764 -0.032792 
0.022018 0.037174 -0.034090 
0.022098 0.038220 -0.034209 
0.022161 0.039270 -0.034301 
0.022208 0.040323 -0.034368 
0.022239 0.041379 -0.034410 
0.022255 0.042435 -0.034428 
0.022256 0.043491 -0.034423 
0.022242 0.044547 -0.034395 
0.022214 0.045599 -0.034346 
0.022173 0.046649 -0.034276 
0.022119 0.047694 -0.034186 
0.022053 0.048733 -0.034077 
0.021975 0.049765 -0.033949 
0.021885 0.050789 -0.033803 
0.021784 0.051805 -0.033641 
0.021673 0.052810 -0.033462 
0.021551 0.053803 -0.033268 
0.021170 0.037174 -0.034564 
0.021248 0.038223 -0.034684 
0.021309 0.039275 -0.034777 
0.021354 0.040332 -0.034844 
0.021384 0.041390 -0.034886 
0.021399 0.042449 -0.034904 
0.021400 0.043508 -0.034898 
0.021387 0.044566 -0.034870 
0.021361 0.045621 -0.034820 
0.021321 0.046674 -0.034748 
0.021269 0.047721 -0.034656 
0.021206 0.048763 -0.034545 
0.021131 0.049798 -0.034415 
0.021044 0.050824 -0.034267 
0.020947 0.051842 -0.034102 
0.020841 0.052850 -0.033920 
0.020724 0.053846 -0.033723 
0.020308 0.037174 -0.035016 
0.020382 0.038226 -0.035137 
0.020441 0.039281 -0.035231 
0.020485 0.040340 -0.035298 
0.020514 0.041401 -0.035341 
0.020528 0.042464 -0.035358 
0.020529 0.043526 -0.035352 
0.020517 0.044586 -0.035323 
0.020492 0.045645 -0.035272 
0.020454 0.046700 -0.035199 
0.020405 0.047750 -0.035106 
0.020344 0.048794 -0.034992 
0.020272 0.049832 -0.034860 
0.020189 0.050861 -0.034710 
0.020096 0.051882 -0.034542 
0.019994 0.052892 -0.034358 
0.019882 0.053891 -0.034158 
0.019432 0.037174 -0.035447 
0.019503 0.038229 -0.035569 
0.019559 0.039287 -0.035664 
0.019601 0.040350 -0.035732 
0.019629 0.041414 -0.035774 
0.019643 0.042479 -0.035792 
0.019644 0.043544 -0.035785 
0.019633 0.044608 -0.035755 
0.019609 0.045669 -0.035702 
