-0.005154 -0.033480 0.014633 
-0.002655 -0.033247 0.015557 
-0.006831 -0.031380 0.017570 
-0.007407 -0.033784 0.013284 
-0.003873 -0.035534 0.012338 
-0.001807 -0.035280 0.013032 
-0.003786 -0.031089 0.018724 
-0.009356 -0.031612 0.015903 
-0.005828 -0.035703 0.011188 
0.008199 0.021564 0.018542 
0.009398 0.018683 0.020927 
0.012231 0.021399 0.016459 
0.006658 0.024138 0.016612 
0.003850 0.021495 0.019608 
0.004580 0.018844 0.022306 
0.013879 0.018293 0.018724 
0.010196 0.023933 0.014726 
0.002908 0.024113 0.017551 
0.029553 0.002890 0.012869 
0.030651 0.003573 0.006592 
0.027998 0.008048 0.011847 
0.026771 0.002717 0.019024 
0.030164 -0.002522 0.013374 
0.031570 -0.002058 0.006897 
0.029387 0.008844 0.006146 
0.025789 0.007993 0.017540 
0.026715 -0.002617 0.019721 
-0.012056 0.004455 0.030531 
-0.006330 0.004958 0.031011 
-0.011454 0.009635 0.028366 
-0.017593 0.004304 0.027838 
-0.011866 -0.001564 0.031052 
-0.006005 -0.000812 0.031924 
-0.006059 0.010187 0.029058 
-0.016769 0.009572 0.025662 
-0.017714 -0.001902 0.028621 
-0.031257 0.005098 -0.011498 
-0.032685 0.005138 -0.006083 
-0.029849 0.010096 -0.010618 
-0.028738 0.005145 -0.017206 
-0.031679 -0.000415 -0.012069 
-0.033382 -0.000756 -0.006271 
-0.031108 0.010296 -0.005730 
-0.027455 0.010058 -0.015926 
-0.029197 -0.000167 -0.018214 
-0.010370 -0.018491 -0.027314 
-0.004978 -0.018219 -0.028545 
-0.009630 -0.024621 -0.023696 
-0.015434 -0.018966 -0.025022 
-0.010812 -0.011377 -0.029662 
-0.004991 -0.011068 -0.030742 
-0.004882 -0.024557 -0.025355 
-0.013997 -0.024939 -0.021525 
-0.016530 -0.011944 -0.027371 
0.003751 0.033699 0.012767 
0.004195 0.030001 0.013605 
0.006188 0.033702 0.011799 
0.003620 0.037513 0.011871 
0.001386 0.033669 0.013287 
0.001531 0.029980 0.014169 
0.007045 0.029985 0.012484 
0.005796 0.037484 0.010970 
0.001430 0.037552 0.012502 
-0.019593 0.021273 0.006977 
-0.022549 0.018417 0.008214 
-0.017466 0.020970 0.010717 
-0.016535 0.024244 0.006086 
-0.021033 0.021339 0.003076 
-0.024361 0.018349 0.003361 
-0.020309 0.018159 0.012729 
-0.014802 0.023996 0.009270 
-0.017715 0.024357 0.002751 
0.019523 0.020841 -0.007050 
0.022082 0.017739 -0.007879 
0.018183 0.020796 -0.010615 
0.016954 0.023710 -0.006149 
0.020428 0.020794 -0.003390 
0.023007 0.017711 -0.003724 
0.020583 0.017700 -0.011852 
0.015429 0.023579 -0.009208 
0.017970 0.023741 -0.002968 
-0.009104 0.020077 -0.018437 
-0.010620 0.017570 -0.020960 
-0.012825 0.020540 -0.016058 
-0.007389 0.022138 -0.016127 
-0.004773 0.019807 -0.019729 
-0.005591 0.017430 -0.022296 
-0.014793 0.017594 -0.018673 
-0.010601 0.022809 -0.014136 
-0.003706 0.021852 -0.017253 
-0.007299 0.044029 -0.002804 
-0.008067 0.043631 -0.001649 
-0.006314 0.045318 -0.001931 
-0.006287 0.044513 -0.003839 
-0.008325 0.042230 -0.003562 
-0.009102 0.041828 -0.002039 
-0.007064 0.044893 -0.001156 
-0.005310 0.045788 -0.002596 
-0.007277 0.042672 -0.004944 
-0.012195 0.032564 0.004603 
-0.013149 0.029629 0.005013 
-0.011210 0.032630 0.007148 
-0.011320 0.035775 0.004339 
-0.012509 0.032657 0.001936 
-0.013795 0.029757 0.002206 
-0.011946 0.029605 0.007675 
-0.010529 0.035823 0.006764 
-0.011521 0.035864 0.001802 
0.012132 0.033649 -0.004214 
0.013410 0.030193 -0.004741 
0.010944 0.033599 -0.006432 
0.011261 0.037111 -0.003863 
0.012865 0.033578 -0.001700 
0.014308 0.030222 -0.002092 
0.012015 0.030020 -0.007132 
0.010337 0.037280 -0.006105 
0.011862 0.036974 -0.001422 
-0.003920 0.032537 -0.011692 
-0.004487 0.028462 -0.013094 
-0.006025 0.032611 -0.010591 
-0.003686 0.037069 -0.010397 
-0.001597 0.032570 -0.012259 
-0.002013 0.028473 -0.013756 
-0.006910 0.028585 -0.011827 
-0.005685 0.037021 -0.009493 
-0.001494 0.037051 -0.010873 
0.026321 -0.021940 0.011296 
0.027710 -0.021297 0.005702 
0.028319 -0.015551 0.012595 
0.023665 -0.022016 0.016495 
0.023399 -0.027022 0.009887 
0.024588 -0.026536 0.004883 
0.030087 -0.015141 0.006499 
0.025380 -0.015690 0.018619 
0.021125 -0.026809 0.014441 
-0.011863 -0.020518 0.027442 
-0.006529 -0.019915 0.028747 
-0.011808 -0.014558 0.029497 
-0.016899 -0.020661 0.024479 
-0.010937 -0.025285 0.024586 
-0.006282 -0.025118 0.026042 
-0.005775 -0.013595 0.030687 
-0.017556 -0.015411 0.026776 
-0.014962 -0.024997 0.021845 
-0.026606 -0.019640 -0.011300 
-0.028447 -0.019499 -0.005326 
-0.029484 -0.012995 -0.012274 
-0.023624 -0.019408 -0.016841 
-0.022474 -0.025834 -0.010045 
-0.024015 -0.025631 -0.004930 
-0.031527 -0.013270 -0.005795 
-0.026246 -0.012653 -0.018334 
-0.020242 -0.025610 -0.014600 
-0.011920 0.006458 -0.029626 
-0.005607 0.006754 -0.030600 
-0.011803 0.001280 -0.031054 
-0.018336 0.005914 -0.026779 
-0.012020 0.010979 -0.027243 
-0.005518 0.011402 -0.028211 
-0.005495 0.001644 -0.032127 
-0.017997 0.000808 -0.028276 
-0.017871 0.010439 -0.024512 
0.001581 0.053599 0.000628 
0.001120 0.051008 0.000802 
0.001944 0.053552 0.000360 
0.002351 0.056296 0.000558 
0.001336 0.053609 0.000748 
0.000659 0.051001 0.000896 
0.001517 0.051043 0.000606 
0.002570 0.056249 0.000404 
0.002104 0.056354 0.000616 
0.005633 0.063128 0.000826 
0.004488 0.061121 0.000668 
0.006275 0.062845 0.000098 
0.007929 0.065360 0.000480 
0.005439 0.063261 0.000793 
0.004293 0.061260 0.000752 
0.004712 0.060983 0.000483 
0.008276 0.065105 0.000138 
0.007396 0.065804 0.000756 
0.000443 0.053681 0.000112 
-0.000434 0.051088 0.000088 
0.000637 0.053672 0.000444 
0.001405 0.056533 0.000119 
0.000370 0.053694 -0.000319 
-0.000389 0.051117 -0.000359 
-0.000273 0.051050 0.000527 
0.001549 0.056498 0.000404 
0.001312 0.056564 -0.000240 
0.002028 0.053593 -0.000775 
0.001688 0.051132 -0.000973 
0.001832 0.053621 -0.001025 
0.002657 0.056257 -0.000813 
0.002249 0.053507 -0.000309 
0.002041 0.051055 -0.000440 
0.001487 0.051142 -0.001260 
0.002580 0.056270 -0.001010 
0.002719 0.056238 -0.000486 
0.000975 0.053627 -0.001246 
0.000423 0.051154 -0.001452 
0.000625 0.053654 -0.001050 
0.001861 0.056433 -0.001167 
0.001346 0.053613 -0.001322 
0.000844 0.051122 -0.001523 
-0.000064 0.051136 -0.001221 
0.001553 0.056511 -0.000993 
0.002210 0.056345 -0.001255 
0.000601 0.046779 0.001565 
0.001041 0.047076 0.002391 
0.001401 0.046776 0.001182 
0.000597 0.046719 0.001329 
-0.000058 0.046762 0.001662 
-0.000048 0.047073 0.002543 
0.001964 0.047135 0.001860 
0.001323 0.046716 0.000957 
0.000031 0.046723 0.001406 
-0.001447 0.046696 0.000089 
-0.001906 0.046935 0.000325 
-0.001231 0.046703 0.000772 
-0.001334 0.046638 0.000102 
-0.001575 0.046712 -0.000378 
-0.001979 0.046990 -0.000470 
-0.001639 0.046933 0.001290 
-0.001028 0.046666 0.000712 
-0.001302 0.046623 -0.000372 
0.001989 0.046740 -0.000816 
0.002270 0.046796 -0.000935 
0.001735 0.046717 -0.001493 
0.001789 0.046687 -0.000868 
0.002182 0.046818 -0.000148 
0.002490 0.046911 -0.000069 
0.001913 0.046944 -0.001752 
0.001409 0.046732 -0.001399 
0.001957 0.046670 -0.000220 
-0.000547 0.046813 -0.001784 
-0.000836 0.047079 -0.002236 
-0.001157 0.046865 -0.001478 
-0.000347 0.046673 -0.001604 
0.000111 0.046818 -0.001974 
0.000008 0.047121 -0.002487 
-0.001492 0.047035 -0.001819 
-0.000914 0.046643 -0.001342 
0.000144 0.046712 -0.001685 
0.011331 0.072439 -0.000917 
0.010046 0.070869 -0.000793 
0.011489 0.072315 -0.000719 
0.012807 0.074141 -0.001330 
0.011290 0.072664 -0.001476 
0.010015 0.070997 -0.001175 
0.010071 0.070831 -0.000538 
0.013010 0.074008 -0.000939 
0.012683 0.074258 -0.001873 
0.011730 0.072109 -0.002727 
0.010480 0.070446 -0.002570 
0.011472 0.072426 -0.002413 
0.012937 0.073607 -0.003245 
0.012005 0.071812 -0.002995 
0.010742 0.070126 -0.002661 
0.010126 0.070871 -0.002304 
0.012711 0.073895 -0.002846 
0.013267 0.073230 -0.003540 
0.016144 0.074059 -0.002596 
0.016012 0.074014 -0.003069 
0.016086 0.074273 -0.002498 
0.016308 0.074117 -0.002174 
0.015982 0.073845 -0.002157 
0.015739 0.073638 -0.003187 
0.015971 0.074237 -0.002920 
0.016277 0.074261 -0.002074 
0.012100 0.071183 -0.000763 
0.011164 0.069897 -0.000508 
0.012311 0.070917 -0.000936 
0.013993 0.073127 -0.000872 
0.011957 0.071557 -0.000700 
0.010877 0.070205 -0.000356 
0.011342 0.069742 -0.000810 
0.014197 0.072911 -0.001012 
0.013791 0.073428 -0.000791 
0.006541 0.062916 -0.001007 
0.004807 0.061046 -0.000902 
0.006264 0.063156 -0.001399 
0.008426 0.065075 -0.001309 
0.006576 0.062775 -0.000509 
0.005031 0.060888 -0.000389 
0.004757 0.061142 -0.001182 
0.008075 0.065341 -0.001817 
0.008571 0.064945 -0.000786 
0.012716 0.071054 -0.002469 
0.011604 0.069504 -0.002095 
0.012571 0.071233 -0.002818 
0.014245 0.072533 -0.002863 
0.012701 0.070873 -0.001745 
0.011658 0.069546 -0.001509 
0.011372 0.069558 -0.002399 
0.013889 0.072673 -0.003189 
0.014419 0.072418 -0.002123 
0.004707 0.063850 0.000087 
0.003526 0.061759 0.000159 
0.004872 0.063684 0.000467 
0.006469 0.066645 -0.000023 
0.004629 0.063986 -0.000313 
0.003426 0.061845 -0.000247 
0.003705 0.061633 0.000478 
0.006655 0.066541 0.000379 
0.006364 0.066673 -0.000501 
0.005284 0.063821 -0.001409 
0.004001 0.061608 -0.001259 
0.004955 0.063939 -0.001087 
0.006982 0.066185 -0.001818 
0.005657 0.063601 -0.001568 
0.004344 0.061425 -0.001385 
0.003688 0.061759 -0.000999 
0.006643 0.066449 -0.001469 
0.007376 0.065897 -0.002007 
0.015793 0.075028 -0.001991 
0.015527 0.074892 -0.002494 
0.015525 0.075476 -0.001394 
0.015994 0.074993 -0.001575 
0.015977 0.074777 -0.002235 
0.015766 0.074618 -0.002596 
0.015232 0.075511 -0.002343 
0.015678 0.075355 -0.001233 
0.016138 0.074715 -0.001843 
0.015955 0.074647 -0.001186 
0.016293 0.074331 -0.001299 
0.016066 0.074727 -0.001209 
0.015591 0.075021 -0.001080 
0.015916 0.074111 -0.001258 
0.016342 0.074415 -0.001440 
0.015671 0.075122 -0.001112 
0.015043 0.074857 -0.003391 
0.014721 0.075558 -0.003205 
0.015175 0.074866 -0.003093 
0.015458 0.074273 -0.003571 
0.015039 0.074113 -0.003661 
0.014335 0.075299 -0.003130 
0.014990 0.075599 -0.003194 
0.015613 0.074402 -0.003356 
0.014930 0.075758 -0.001344 
0.015195 0.075621 -0.000970 
0.015123 0.075863 -0.001280 
0.014700 0.076003 -0.002075 
0.014368 0.075698 -0.002023 
0.014844 0.075469 -0.001026 
0.015314 0.075686 -0.000995 
0.014842 0.076104 -0.002034 
-0.007949 0.020780 0.018693 
-0.009106 0.017439 0.021603 
-0.004247 0.020991 0.019591 
-0.006886 0.023466 0.015967 
-0.011569 0.020584 0.016702 
-0.013410 0.017369 0.019399 
-0.004869 0.017996 0.022620 
-0.003704 0.023577 0.016940 
-0.009866 0.023536 0.014388 
0.010952 0.005614 0.029817 
0.017058 0.004715 0.027778 
0.010631 0.010820 0.027484 
0.005181 0.005705 0.030968 
0.011176 -0.000388 0.030819 
0.017084 -0.001550 0.028674 
0.016238 0.010224 0.025311 
0.005016 0.010985 0.028906 
0.005393 -0.000054 0.032183 
0.011057 -0.018547 -0.027051 
0.016028 -0.018823 -0.025043 
0.009707 -0.025010 -0.024136 
0.005827 -0.018359 -0.028494 
0.012084 -0.011303 -0.029193 
0.017185 -0.011819 -0.026568 
0.013914 -0.025188 -0.022205 
0.005007 -0.024760 -0.025281 
0.006620 -0.010951 -0.030996 
-0.005565 0.033222 0.012353 
-0.005788 0.029836 0.013066 
-0.003162 0.033442 0.013135 
-0.005401 0.036636 0.011816 
-0.007763 0.033016 0.011105 
-0.008133 0.029785 0.011785 
-0.003298 0.029846 0.013882 
-0.003188 0.037081 0.012596 
-0.007384 0.036237 0.010550 
0.009038 0.020268 -0.018236 
0.010518 0.018111 -0.020332 
0.004371 0.020116 -0.019240 
0.006862 0.022042 -0.016162 
0.012814 0.020383 -0.016280 
0.014685 0.017899 -0.018081 
0.005299 0.018095 -0.021581 
0.003548 0.021872 -0.017202 
0.010385 0.022544 -0.014402 
0.005606 0.032851 -0.011393 
0.006163 0.028659 -0.012926 
0.003360 0.032724 -0.012318 
0.005206 0.037178 -0.010413 
0.007517 0.033088 -0.009925 
0.008245 0.029049 -0.011235 
0.003704 0.028535 -0.013961 
0.002983 0.037088 -0.010997 
0.007203 0.037340 -0.009367 
0.010469 -0.019693 0.027288 
0.015432 -0.020976 0.024743 
0.011083 -0.013849 0.029806 
0.005250 -0.019081 0.028558 
0.009653 -0.024521 0.024119 
0.014112 -0.025393 0.021776 
0.016456 -0.014942 0.027333 
0.005655 -0.012825 0.031047 
0.004719 -0.024249 0.025535 
0.013121 0.006855 -0.027482 
0.018289 0.005996 -0.024448 
0.013228 0.001559 -0.029395 
0.007165 0.007376 -0.029577 
0.012752 0.011525 -0.025289 
0.017992 0.010858 -0.022565 
0.018384 0.000715 -0.026135 
0.007111 0.001985 -0.031617 
0.006799 0.012056 -0.027144 
0.012235 0.033495 0.006283 
0.013629 0.030073 0.006425 
0.013142 0.033438 0.003783 
0.011167 0.037088 0.006035 
0.010620 0.033570 0.008424 
0.011943 0.029999 0.008793 
0.014576 0.030131 0.003669 
0.012092 0.036907 0.003708 
0.009696 0.037269 0.008000 
-0.030645 0.005183 0.012880 
-0.027233 0.005250 0.018807 
-0.028540 0.010922 0.011493 
-0.032160 0.004688 0.006153 
-0.031374 -0.002099 0.013636 
-0.027475 -0.001392 0.019383 
-0.025761 0.010738 0.017298 
-0.030241 0.010712 0.005063 
-0.033307 -0.002786 0.006991 
-0.011139 0.032956 -0.004905 
-0.012681 0.029829 -0.005344 
-0.012033 0.032911 -0.002797 
-0.010186 0.036546 -0.004611 
-0.009828 0.032868 -0.006910 
-0.011280 0.029573 -0.007583 
-0.013646 0.029835 -0.003015 
-0.011028 0.036320 -0.002628 
-0.009017 0.036638 -0.006453 
0.002896 -0.034662 -0.000146 
0.002321 -0.034960 0.000558 
0.002357 -0.034039 -0.001334 
0.002899 -0.034174 -0.001030 
0.003082 -0.034722 0.000488 
0.002686 -0.034826 0.000923 
0.001021 -0.033813 -0.001200 
0.002652 -0.034111 -0.002010 
0.003191 -0.034351 -0.000201 
0.020165 0.020468 0.007468 
0.023139 0.016778 0.008956 
0.021024 0.020479 0.003821 
0.017285 0.023734 0.006651 
0.018432 0.020698 0.010971 
0.021367 0.016766 0.013023 
0.023960 0.017107 0.004508 
0.018274 0.023678 0.003492 
0.015566 0.023785 0.009758 
-0.027691 -0.019761 0.011308 
-0.024746 -0.019977 0.015881 
-0.029597 -0.014429 0.012117 
-0.029860 -0.019458 0.006393 
-0.024065 -0.025255 0.010158 
-0.021469 -0.025046 0.014294 
-0.026322 -0.014613 0.017350 
-0.032047 -0.014317 0.006713 
-0.025669 -0.025124 0.005587 
0.025731 -0.019596 -0.012162 
0.023400 -0.019598 -0.017206 
0.027893 -0.012951 -0.012697 
0.027261 -0.019669 -0.006362 
0.022235 -0.025458 -0.010798 
0.020050 -0.025561 -0.015315 
0.025225 -0.012882 -0.018227 
0.029675 -0.013156 -0.006579 
0.023712 -0.025550 -0.005724 
0.028207 0.005110 -0.012109 
0.025622 0.004988 -0.017015 
0.026731 0.010158 -0.010468 
0.030357 0.005111 -0.006299 
0.028843 -0.000653 -0.013089 
0.026206 -0.000612 -0.018358 
0.024558 0.010040 -0.015191 
0.028563 0.010142 -0.005114 
0.030904 -0.000718 -0.007013 
-0.020378 0.021048 -0.007285 
-0.023966 0.017787 -0.008235 
-0.021153 0.021071 -0.003915 
-0.017291 0.024047 -0.006443 
-0.018845 0.021082 -0.010709 
-0.022068 0.017848 -0.012396 
-0.024947 0.017881 -0.004407 
-0.017895 0.024046 -0.003548 
-0.015956 0.023973 -0.009251 
-0.002338 0.045375 -0.006206 
-0.002752 0.043522 -0.007774 
-0.003705 0.045166 -0.005514 
-0.001766 0.046650 -0.004463 
-0.000817 0.045433 -0.006734 
-0.000960 0.043660 -0.008268 
-0.004355 0.043248 -0.007069 
-0.002981 0.046521 -0.003744 
-0.000450 0.046720 -0.005053 
0.004015 0.044883 -0.007050 
0.002489 0.045191 -0.007179 
0.003862 0.046181 -0.005627 
0.005463 0.044707 -0.006552 
0.004509 0.043150 -0.008250 
0.002722 0.043351 -0.008657 
0.002553 0.046589 -0.005526 
0.005015 0.045834 -0.005432 
0.006198 0.042982 -0.007438 
0.004700 0.046562 -0.001734 
0.004261 0.046715 -0.002966 
0.003779 0.046750 -0.001419 
0.005368 0.046509 -0.000589 
0.005606 0.046295 -0.002072 
0.005178 0.046383 -0.003256 
0.003257 0.046981 -0.002719 
0.004430 0.046781 -0.000133 
0.006245 0.046152 -0.000984 
-0.004430 0.046564 0.001314 
-0.004077 0.046545 0.002628 
-0.003507 0.046915 0.000996 
-0.004933 0.046342 0.000188 
-0.005336 0.046010 0.001635 
-0.004976 0.045971 0.002883 
-0.003063 0.046930 0.002402 
-0.003971 0.046760 -0.000210 
-0.005817 0.045787 0.000576 
0.002403 0.045440 0.007183 
0.002976 0.043354 0.008971 
0.004087 0.045438 0.006479 
0.001876 0.046982 0.005232 
0.000563 0.045374 0.007684 
0.001001 0.043332 0.009454 
0.004861 0.043277 0.008251 
0.003409 0.047015 0.004483 
0.000244 0.046836 0.005727 
-0.004542 0.044105 0.007625 
-0.003074 0.044730 0.007991 
-0.004157 0.045521 0.005857 
-0.005761 0.043483 0.006971 
-0.004800 0.041995 0.009082 
-0.003125 0.042671 0.009648 
-0.002873 0.046125 0.005995 
-0.005189 0.044979 0.005418 
-0.006263 0.041421 0.008243 
0.008293 0.044708 0.003180 
0.009030 0.044442 0.001765 
0.007195 0.046053 0.001971 
0.007211 0.044952 0.004442 
0.009261 0.042680 0.004323 
0.010065 0.042471 0.002585 
0.007881 0.045680 0.000989 
0.006138 0.046398 0.002839 
0.008079 0.042888 0.005836 
0.008614 0.044227 -0.003091 
0.007939 0.044328 -0.004568 
0.007621 0.045343 -0.002779 
0.009035 0.044132 -0.001418 
0.009642 0.042553 -0.003367 
0.008879 0.042724 -0.005159 
0.007100 0.045382 -0.003978 
0.008015 0.045301 -0.001503 
0.010089 0.042413 -0.001366 
-0.008252 0.043143 0.002961 
-0.007780 0.043040 0.004709 
-0.007256 0.044486 0.002447 
-0.008446 0.043249 0.001226 
-0.009354 0.041225 0.003570 
-0.008687 0.041014 0.005566 
-0.006921 0.044443 0.003800 
-0.007446 0.044501 0.001150 
-0.009521 0.041460 0.001443 
-0.002990 -0.036119 0.001533 
-0.001934 -0.036650 0.002780 
-0.004626 -0.037382 0.002628 
-0.003567 -0.035371 0.000680 
-0.002199 -0.035061 0.000898 
-0.001300 -0.035609 0.002080 
-0.003519 -0.037713 0.004200 
-0.005510 -0.037162 0.001326 
-0.002911 -0.034677 0.000472 
-0.012640 -0.035246 -0.005775 
-0.013343 -0.035292 -0.002878 
-0.015110 -0.032538 -0.006836 
-0.011472 -0.035255 -0.008474 
-0.010325 -0.036940 -0.004862 
-0.011000 -0.037034 -0.002486 
-0.016047 -0.032680 -0.003430 
-0.013680 -0.032371 -0.009960 
-0.009187 -0.036839 -0.007042 
-0.005373 -0.034857 -0.014144 
-0.002955 -0.034927 -0.014926 
-0.004185 -0.036946 -0.011640 
-0.007688 -0.034822 -0.012803 
-0.006605 -0.032157 -0.016715 
-0.003577 -0.032156 -0.017671 
-0.002268 -0.036917 -0.012283 
-0.006188 -0.037017 -0.010714 
-0.009397 -0.032192 -0.015089 
0.012757 -0.035474 -0.006357 
0.013881 -0.035706 -0.003328 
0.010358 -0.036669 -0.005286 
0.011212 -0.035391 -0.009095 
0.015346 -0.032951 -0.007632 
0.016544 -0.033179 -0.003984 
0.011324 -0.037046 -0.002834 
0.009141 -0.036811 -0.007423 
0.013615 -0.032843 -0.010914 
0.002323 -0.036052 0.006010 
0.003060 -0.036583 0.007749 
0.001953 -0.035893 0.006537 
0.001977 -0.035431 0.004335 
0.002838 -0.036543 0.005104 
0.004025 -0.037205 0.006892 
0.002145 -0.036361 0.008309 
0.001788 -0.035399 0.004972 
0.002394 -0.035716 0.003625 
-0.003158 -0.035984 -0.002412 
-0.002604 -0.035049 -0.003255 
-0.002389 -0.034870 -0.002021 
-0.003587 -0.036242 -0.000728 
-0.005055 -0.037571 -0.003162 
-0.004388 -0.036639 -0.004204 
-0.001925 -0.034185 -0.002822 
-0.002874 -0.035046 -0.000616 
-0.005642 -0.037967 -0.001337 
0.004481 -0.034438 -0.003087 
0.005899 -0.035956 -0.003762 
0.004657 -0.035630 -0.001427 
0.003637 -0.033032 -0.002620 
0.004492 -0.034432 -0.003354 
0.005668 -0.036101 -0.004403 
0.006196 -0.036782 -0.001820 
0.003695 -0.034649 -0.001091 
0.003647 -0.032844 -0.002784 
0.001137 -0.034255 -0.005213 
0.001210 -0.035974 -0.006859 
0.001379 -0.034765 -0.005074 
0.001118 -0.033918 -0.004519 
0.001065 -0.034151 -0.005145 
0.001081 -0.035722 -0.006919 
0.002201 -0.036849 -0.006288 
0.001500 -0.034275 -0.004035 
0.000989 -0.033796 -0.004596 
0.000151 -0.036934 0.005686 
0.001036 -0.036475 0.006101 
-0.001132 -0.037342 0.007773 
-0.000879 -0.037057 0.005005 
0.000716 -0.036052 0.004326 
0.001339 -0.035751 0.004664 
0.000089 -0.036925 0.008126 
-0.002217 -0.037619 0.007042 
-0.000311 -0.036112 0.003795 
0.005117 -0.036375 0.001611 
0.006739 -0.037399 0.002709 
0.004348 -0.037107 0.002833 
0.004086 -0.035224 0.001117 
0.005385 -0.035663 0.000652 
0.007010 -0.036776 0.001191 
0.006039 -0.037929 0.004260 
0.003500 -0.035763 0.002028 
0.004340 -0.034851 0.000414 
-0.001076 -0.033527 -0.004103 
-0.000055 -0.033917 -0.004429 
-0.000734 -0.033284 -0.003782 
-0.001500 -0.033745 -0.004043 
-0.001568 -0.034962 -0.005290 
-0.000420 -0.035528 -0.005724 
0.000149 -0.033434 -0.003950 
-0.001092 -0.033281 -0.003637 
-0.002571 -0.035728 -0.005083 
-0.012627 -0.034708 0.006138 
-0.010235 -0.036464 0.005150 
-0.011166 -0.034245 0.008848 
-0.015709 -0.032421 0.007410 
-0.013476 -0.035188 0.003161 
-0.010998 -0.036834 0.002621 
-0.008996 -0.036177 0.007448 
-0.013998 -0.031952 0.010617 
-0.016487 -0.032780 0.003781 
0.006071 -0.033618 0.014697 
0.003150 -0.033511 0.015672 
0.005123 -0.035586 0.012327 
0.008658 -0.033700 0.013176 
0.007242 -0.031541 0.017603 
0.003682 -0.031375 0.018710 
0.002739 -0.035433 0.013125 
0.007217 -0.035725 0.011009 
0.010439 -0.031608 0.015834 
0.013375 -0.034911 0.005686 
0.014158 -0.035517 0.002844 
0.015841 -0.032273 0.006661 
0.012211 -0.034304 0.008439 
0.010981 -0.036443 0.004742 
0.011591 -0.036841 0.002351 
0.016553 -0.032783 0.003275 
0.014673 -0.031854 0.010127 
0.010093 -0.036208 0.007057 
0.004694 -0.035191 -0.014326 
0.002088 -0.035054 -0.014848 
0.006088 -0.032497 -0.017011 
0.007285 -0.035377 -0.013312 
0.003347 -0.036854 -0.011791 
0.001467 -0.036699 -0.012192 
0.002897 -0.032244 -0.017623 
0.009101 -0.032747 -0.015831 
0.005638 -0.037194 -0.010954 
-0.000560 -0.033372 -0.003368 
-0.000668 -0.033497 -0.003321 
0.000063 -0.033428 -0.003453 
0.000150 -0.033519 -0.003445 
-0.001051 -0.033493 -0.003148 
-0.000981 -0.033384 -0.003172 
0.000014 -0.034079 0.002311 
0.000639 -0.033888 0.002388 
0.000025 -0.034154 0.002258 
0.000607 -0.033948 0.002333 
-0.000585 -0.033977 0.002049 
-0.000661 -0.034055 0.001922 
-0.001831 -0.034451 -0.001103 
-0.002304 -0.034398 -0.000607 
-0.001338 -0.033990 -0.002090 
-0.001934 -0.034581 -0.000933 
-0.002292 -0.034579 -0.000454 
-0.001373 -0.034292 -0.001895 
0.000153 -0.034945 -0.003246 
-0.000592 -0.035067 -0.002997 
-0.000149 -0.034497 -0.003374 
0.000966 -0.034273 -0.003232 
0.000646 -0.035272 -0.002930 
-0.000016 -0.034835 -0.002420 
-0.000800 -0.034680 -0.003184 
0.000570 -0.033920 -0.003475 
0.001471 -0.034595 -0.003266 
0.000236 -0.034552 0.002135 
0.000323 -0.034501 0.002312 
-0.000360 -0.033995 0.000766 
0.000865 -0.034716 0.001690 
0.000969 -0.034351 0.002245 
0.000805 -0.034144 0.002442 
-0.000673 -0.034179 0.001553 
0.000009 -0.033623 0.000291 
0.001459 -0.034697 0.001764 
0.001572 -0.033443 -0.003254 
0.001314 -0.033071 -0.003290 
0.001918 -0.033620 -0.002808 
0.002032 -0.033808 -0.002863 
0.001076 -0.033296 -0.003449 
0.001063 -0.033187 -0.003485 
-0.001693 -0.034791 0.000238 
-0.001777 -0.034693 0.000339 
-0.002049 -0.034861 -0.000163 
-0.001485 -0.034807 -0.000131 
-0.000827 -0.033980 0.000312 
-0.001119 -0.034015 0.000534 
-0.002105 -0.034733 0.000141 
-0.001731 -0.034879 -0.000773 
-0.000331 -0.033872 -0.000264 
0.002628 -0.033979 0.001168 
0.003007 -0.034240 0.000769 
0.003259 -0.034156 0.000198 
0.003040 -0.034145 0.000708 
0.002657 -0.034102 0.001153 
0.003111 -0.034229 0.000357 
-0.001703 -0.033890 0.000478 
-0.002136 -0.034189 0.000283 
-0.001729 -0.034166 0.000431 
-0.001041 -0.033434 0.000895 
-0.002070 -0.034380 0.000306 
-0.001083 -0.033638 0.000725 
0.001343 -0.033581 0.002161 
0.001367 -0.033645 0.002120 
0.001649 -0.033648 0.001821 
0.001191 -0.033623 0.002400 
0.001281 -0.033678 0.002303 
0.001661 -0.033754 0.001771 
0.003001 -0.033208 -0.001490 
0.003127 -0.033625 -0.000816 
0.002928 -0.033392 -0.001509 
0.002809 -0.032922 -0.001853 
0.003004 -0.033752 -0.000971 
0.002822 -0.032990 -0.001907 
0.020460 -0.030176 0.004112 
0.019524 -0.030039 0.008221 
0.017953 -0.029765 0.012307 
-0.004313 -0.029130 -0.021352 
-0.008148 -0.029172 -0.020091 
-0.011673 -0.029285 -0.018151 
0.022804 -0.000159 -0.022585 
0.022562 0.005274 -0.021116 
0.021713 0.010242 -0.019237 
-0.005181 -0.028835 0.022546 
-0.008978 -0.029180 0.021148 
-0.012188 -0.029184 0.019016 
0.022584 -0.002332 0.025186 
0.022664 0.003414 0.024424 
0.021855 0.008856 0.022350 
-0.020001 -0.030262 -0.004345 
-0.018761 -0.030272 -0.008562 
-0.016927 -0.029829 -0.012243 
-0.022913 -0.001725 0.024541 
-0.022742 0.004726 0.023737 
-0.021827 0.010167 0.021887 
-0.024634 0.000149 -0.023854 
-0.024387 0.005356 -0.022504 
-0.023296 0.010106 -0.020686 
0.026926 0.013372 0.005386 
0.025681 0.012711 0.010390 
0.023667 0.012665 0.015224 
-0.005736 0.015062 -0.025236 
-0.011582 0.014666 -0.024085 
-0.016574 0.014281 -0.021522 
-0.005475 0.014399 0.025799 
-0.010378 0.013890 0.025077 
-0.015364 0.014005 0.022641 
-0.028253 0.014439 -0.005094 
-0.027207 0.014287 -0.009393 
-0.025094 0.014282 -0.014185 
0.016166 0.026890 0.003512 
0.015110 0.026851 0.006442 
0.013309 0.026774 0.009133 
-0.002577 0.024798 -0.015251 
-0.005640 0.024917 -0.014444 
-0.008517 0.025282 -0.012888 
-0.003484 0.026610 0.015213 
-0.006153 0.026531 0.014141 
-0.008703 0.026596 0.012744 
-0.015444 0.026971 -0.003222 
-0.014613 0.026983 -0.005794 
-0.013235 0.026770 -0.008265 
0.018113 0.017319 0.016192 
0.015716 0.021088 0.013877 
0.013168 0.023804 0.012435 
-0.012524 0.023693 0.012044 
-0.014810 0.020639 0.013900 
-0.017326 0.017746 0.016353 
-0.013582 0.023544 -0.011718 
-0.016085 0.020857 -0.013556 
-0.018588 0.017644 -0.015938 
0.017978 0.017707 -0.015277 
0.015872 0.020615 -0.013713 
0.013208 0.023234 -0.011956 
0.011224 0.040091 0.003276 
0.010366 0.040333 0.005356 
0.009039 0.040576 0.007179 
-0.001221 0.040884 -0.009760 
-0.003264 0.040831 -0.009281 
-0.005137 0.040721 -0.008472 
-0.003140 0.040225 0.011399 
-0.005106 0.039633 0.010718 
-0.006900 0.039159 0.009674 
-0.010221 0.039491 -0.002404 
-0.009393 0.039876 -0.004218 
-0.008280 0.040217 -0.005870 
0.009681 0.029967 0.010817 
0.008500 0.033638 0.010287 
0.007891 0.037407 0.009662 
-0.009178 0.035970 0.008918 
-0.009695 0.032826 0.009367 
-0.010247 0.029692 0.009985 
-0.007499 0.036802 -0.008126 
-0.008000 0.032734 -0.008879 
-0.009326 0.029003 -0.009876 
0.010184 0.029620 -0.009245 
0.009321 0.033400 -0.008285 
0.008958 0.037395 -0.007969 
0.021671 -0.012361 -0.023010 
0.020170 -0.019197 -0.021677 
0.017326 -0.025391 -0.019238 
0.021286 -0.015478 0.023616 
0.019877 -0.021655 0.021022 
0.017998 -0.026180 0.018512 
-0.022436 -0.015173 0.022400 
-0.021261 -0.020292 0.020300 
-0.018841 -0.024972 0.018319 
-0.021802 -0.012369 -0.023449 
-0.019854 -0.019201 -0.021486 
-0.017638 -0.025188 -0.018565 
0.031601 -0.008454 0.006969 
0.029597 -0.008810 0.013310 
0.026253 -0.008900 0.019750 
-0.005525 -0.006921 0.031722 
-0.011588 -0.007822 0.030732 
-0.017691 -0.008698 0.028480 
-0.033038 -0.007069 -0.006043 
-0.031038 -0.006428 -0.012374 
-0.028162 -0.005999 -0.018821 
-0.005212 -0.004350 -0.031949 
-0.011365 -0.004648 -0.030834 
-0.017456 -0.005200 -0.028116 
0.002378 0.047088 -0.002255 
0.002899 0.046843 -0.001142 
0.003372 0.046967 0.000067 
-0.000070 0.047242 -0.003584 
-0.001184 0.047132 -0.003152 
-0.002140 0.047035 -0.002561 
0.002703 0.047389 0.002823 
0.001482 0.047355 0.003539 
0.000061 0.047305 0.003892 
-0.002249 0.047060 0.001962 
-0.002674 0.047052 0.000683 
-0.002918 0.047057 -0.000442 
0.004866 0.046776 0.003629 
0.005756 0.045212 0.005525 
0.006623 0.043074 0.007171 
-0.005942 0.043028 -0.006136 
-0.005046 0.044932 -0.004747 
-0.004171 0.046225 -0.003159 
0.003605 0.058984 -0.001032 
0.003659 0.058949 -0.000817 
0.003712 0.058910 -0.000460 
0.003236 0.059148 -0.001264 
0.002908 0.059283 -0.001163 
0.002614 0.059401 -0.000945 
0.003560 0.058945 0.000300 
0.003385 0.059014 0.000535 
0.003202 0.059094 0.000660 
0.002678 0.059331 0.000436 
0.002504 0.059416 0.000139 
0.002414 0.059466 -0.000261 
0.001901 0.051047 0.000246 
0.002216 0.053496 0.000197 
0.002723 0.056219 -0.000017 
-0.000545 0.046716 0.001172 
-0.000747 0.046900 0.001480 
-0.001017 0.047023 0.002168 
-0.001200 0.046629 -0.000886 
-0.001512 0.046838 -0.000881 
-0.001907 0.047036 -0.001173 
0.001249 0.051117 -0.001499 
0.001628 0.053627 -0.001273 
0.002448 0.056296 -0.001226 
0.001829 0.046695 0.000366 
0.001958 0.046863 0.000613 
0.002558 0.047090 0.001035 
0.000178 0.051016 0.000796 
0.001010 0.053638 0.000692 
0.001795 0.056437 0.000552 
-0.000316 0.051145 -0.000857 
0.000393 0.053692 -0.000715 
0.001317 0.056571 -0.000569 
0.000869 0.046735 -0.001672 
0.000977 0.046756 -0.001843 
0.001022 0.047082 -0.002371 
0.001263 0.046692 0.000892 
0.000580 0.046695 0.001242 
0.000048 0.046699 0.001314 
-0.000948 0.046645 0.000662 
-0.001234 0.046638 0.000142 
-0.001206 0.046604 -0.000358 
0.001344 0.046707 -0.001324 
0.001701 0.046664 -0.000824 
0.001859 0.046649 -0.000215 
-0.000841 0.046623 -0.001271 
-0.000308 0.046652 -0.001517 
0.000154 0.046688 -0.001594 
0.015947 0.074451 -0.002753 
0.016103 0.074571 -0.002412 
0.016274 0.074524 -0.002100 
0.015648 0.074472 -0.003027 
0.015327 0.074851 -0.002810 
0.015075 0.075513 -0.002920 
0.016310 0.074603 -0.001543 
0.016108 0.074836 -0.001317 
0.015752 0.075208 -0.001177 
0.015420 0.075526 -0.001076 
0.015272 0.075731 -0.001284 
0.014993 0.075940 -0.002096 
0.014208 0.075635 -0.002661 
0.014512 0.075867 -0.002674 
0.014742 0.075860 -0.002645 
0.016373 0.074256 -0.001821 
0.016430 0.074096 -0.001771 
0.015799 0.074002 -0.003611 
0.015881 0.074207 -0.003392 
0.015464 0.075427 -0.000993 
0.015360 0.075401 -0.000931 
0.015697 0.074429 -0.001095 
0.015357 0.074665 -0.001013 
0.014670 0.074725 -0.003409 
0.014579 0.075604 -0.001420 
0.015910 0.073684 -0.002625 
0.009372 0.070124 -0.000435 
0.008792 0.069560 -0.000669 
0.008497 0.069416 -0.001010 
0.009271 0.068236 -0.002559 
0.008872 0.068592 -0.002367 
0.008541 0.068927 -0.001995 
0.010200 0.067816 -0.002346 
0.010756 0.067979 -0.001990 
0.011072 0.068161 -0.001313 
0.011107 0.068833 -0.000606 
0.010813 0.069197 -0.000281 
0.010524 0.069622 -0.000133 
0.004610 0.061262 -0.001367 
0.006031 0.063354 -0.001570 
0.007763 0.065607 -0.002043 
0.007120 0.066124 0.000628 
0.005167 0.063462 0.000663 
0.003976 0.061461 0.000680 
0.004961 0.060889 0.000032 
0.006511 0.062741 -0.000131 
0.008541 0.064949 -0.000249 
0.006407 0.066636 -0.001000 
0.004719 0.064013 -0.000711 
0.003479 0.061848 -0.000654 
0.012600 0.074208 -0.002439 
0.011334 0.072715 -0.002014 
0.009924 0.071093 -0.001794 
0.014307 0.072620 -0.001402 
0.012531 0.070844 -0.001190 
0.011493 0.069667 -0.001123 
0.011029 0.069785 -0.002619 
0.012376 0.071411 -0.003024 
0.013622 0.072828 -0.003460 
0.013417 0.073820 -0.000763 
0.011609 0.071992 -0.000737 
0.010306 0.070598 -0.000460 
0.003936 -0.029327 -0.021376 
0.007868 -0.029620 -0.020545 
0.011383 -0.029855 -0.019032 
0.004255 -0.028588 0.022202 
0.008504 -0.028788 0.020887 
0.012363 -0.029041 0.018838 
0.006154 0.015665 -0.024354 
0.011736 0.015332 -0.022822 
0.016425 0.014846 -0.020268 
0.004879 0.015166 0.025379 
0.010115 0.015028 0.024162 
0.015223 0.014495 0.022026 
0.003587 0.024769 -0.015473 
0.006317 0.024918 -0.014384 
0.008797 0.025402 -0.012594 
0.002038 0.026978 0.015856 
0.005234 0.026957 0.015082 
0.008376 0.026747 0.013445 
0.002997 0.040835 -0.010009 
0.004997 0.040744 -0.009495 
0.006806 0.040672 -0.008544 
0.001402 0.040994 0.011337 
0.003487 0.040980 0.010760 
0.005498 0.040866 0.009897 
0.005589 -0.006295 0.032424 
0.011338 -0.007129 0.031045 
0.017083 -0.008181 0.028767 
0.007027 -0.004025 -0.032323 
0.012897 -0.004492 -0.030046 
0.018272 -0.005116 -0.027017 
-0.000254 -0.036861 -0.012505 
-0.000488 -0.034995 -0.015150 
-0.000360 -0.032125 -0.017894 
-0.000331 0.018686 0.022777 
-0.000364 0.021331 0.019866 
-0.000568 0.023900 0.017628 
-0.000595 0.010758 0.029153 
-0.000636 0.005488 0.031202 
-0.000365 -0.000121 0.032493 
0.000115 -0.024423 -0.025723 
0.000497 -0.018121 -0.029102 
0.000860 -0.010891 -0.031417 
-0.000887 0.029924 0.014304 
-0.000861 0.033623 0.013468 
-0.000862 0.037427 0.012778 
0.000340 0.017908 -0.022198 
0.000151 0.019887 -0.019801 
0.000062 0.021809 -0.017547 
0.000859 0.028524 -0.014113 
0.000838 0.032663 -0.012508 
0.000721 0.037058 -0.011094 
0.000038 -0.012747 0.031221 
-0.000699 -0.019435 0.029011 
-0.000875 -0.024642 0.026230 
0.000892 0.001966 -0.032417 
0.000973 0.007328 -0.030588 
0.000926 0.012013 -0.027970 
-0.011250 -0.037073 0.000032 
-0.013705 -0.035425 0.000125 
-0.016536 -0.032850 0.000137 
-0.033265 -0.009026 0.006946 
-0.030924 -0.008843 0.012908 
-0.027171 -0.008475 0.018709 
0.030643 -0.006855 -0.006930 
0.028697 -0.006651 -0.013226 
0.025925 -0.006542 -0.018686 
0.000381 -0.035273 0.013373 
0.000203 -0.033328 0.015980 
-0.000103 -0.031115 0.019092 
-0.027489 0.015113 0.004097 
-0.025570 0.015287 0.010008 
-0.023242 0.015060 0.015196 
-0.020706 -0.029976 0.004553 
-0.019522 -0.029585 0.008773 
-0.017520 -0.029242 0.012618 
0.019969 -0.030052 -0.004815 
0.018651 -0.029877 -0.009174 
0.016731 -0.030003 -0.013157 
0.025830 0.014259 -0.004192 
0.024504 0.014273 -0.008956 
0.022838 0.014303 -0.013390 
-0.033050 -0.013879 0.000864 
-0.030383 -0.019174 0.000913 
-0.025455 -0.025105 0.000493 
0.014754 0.030179 0.000744 
0.013241 0.033463 0.001022 
0.012201 0.036858 0.001129 
-0.014023 0.029810 -0.000486 
-0.012482 0.032785 -0.000530 
-0.011444 0.036061 -0.000505 
0.030434 -0.014183 0.000031 
0.027941 -0.020300 -0.000152 
0.024543 -0.025932 -0.000219 
-0.010734 0.039048 0.001703 
-0.010513 0.038864 0.004085 
-0.009735 0.038742 0.006304 
-0.015161 0.027047 0.002483 
-0.014164 0.026932 0.005422 
-0.012816 0.026783 0.008232 
0.015938 0.026917 -0.002518 
0.014926 0.026843 -0.005380 
0.013357 0.026625 -0.008000 
0.011120 0.040081 -0.001360 
0.010610 0.040234 -0.003666 
0.009759 0.040418 -0.005724 
0.023898 0.017494 0.000369 
0.021082 0.020623 0.000254 
0.018505 0.023703 0.000269 
-0.031326 0.010584 -0.000883 
-0.032966 0.004992 -0.000370 
-0.034046 -0.002116 0.000200 
0.029586 0.009682 0.000511 
0.030722 0.004406 0.000344 
0.031491 -0.001303 0.000096 
-0.025334 0.018215 -0.000914 
-0.021556 0.021302 -0.000644 
-0.018121 0.024206 -0.000480 
-0.007515 0.044581 -0.000100 
-0.008448 0.043371 -0.000320 
-0.009484 0.041582 -0.000387 
0.000905 0.043511 -0.008575 
0.000843 0.045367 -0.007033 
0.001055 0.046765 -0.005334 
-0.006167 0.044570 0.004936 
-0.006902 0.043084 0.006113 
-0.007617 0.041086 0.007162 
-0.001149 0.043184 0.009739 
-0.001363 0.045185 0.007976 
-0.001397 0.046551 0.005963 
0.006179 0.045523 -0.004926 
0.006889 0.044480 -0.005676 
0.007665 0.042862 -0.006508 
0.008237 0.045369 -0.000182 
0.009261 0.044191 0.000245 
0.010309 0.042379 0.000637 
0.004979 0.046259 -0.004294 
0.003946 0.046705 -0.004230 
0.002812 0.047052 -0.004041 
0.006914 0.046081 -0.000022 
0.006177 0.046526 0.000631 
0.005197 0.046892 0.001267 
0.006140 0.046043 -0.003500 
0.006582 0.045955 -0.002430 
0.007050 0.045834 -0.001341 
-0.004964 0.045618 0.004047 
-0.003971 0.046242 0.004124 
-0.002803 0.046741 0.004068 
-0.006264 0.045503 -0.000331 
-0.005494 0.045991 -0.000888 
-0.004502 0.046451 -0.001369 
-0.005918 0.045356 0.003153 
-0.006259 0.045353 0.002001 
-0.006565 0.045210 0.000908 
-0.006537 -0.037577 0.006040 
-0.007603 -0.037578 0.004139 
-0.008474 -0.037659 0.002062 
0.008033 -0.037543 0.005763 
0.008749 -0.037339 0.003893 
0.009132 -0.037193 0.001845 
-0.006766 -0.037238 -0.005641 
-0.007766 -0.037916 -0.004075 
-0.008465 -0.038270 -0.001975 
0.000461 -0.033896 -0.001649 
0.001434 -0.034527 -0.002344 
0.002174 -0.034648 -0.002658 
0.003884 -0.037875 -0.008630 
0.002015 -0.037127 -0.009451 
0.001138 -0.036733 -0.009705 
0.011738 -0.037229 -0.000195 
0.014352 -0.035767 -0.000216 
0.016836 -0.033165 -0.000183 
0.002982 -0.034585 0.001495 
0.003472 -0.034513 0.000831 
0.003781 -0.034426 0.000238 
-0.001520 -0.033877 -0.002383 
-0.002003 -0.034450 -0.001500 
-0.002489 -0.034568 -0.000700 
0.004243 -0.034793 -0.000100 
0.005156 -0.035671 -0.000006 
0.006718 -0.036779 0.000030 
-0.001019 -0.034145 0.001347 
-0.001772 -0.034146 0.000556 
-0.002375 -0.034392 0.000313 
0.000779 -0.033639 -0.004456 
0.000872 -0.034046 -0.004934 
0.000819 -0.035737 -0.006557 
-0.003012 -0.034749 0.000115 
-0.003645 -0.035562 0.000372 
-0.005820 -0.037662 0.000281 
0.001697 -0.033741 -0.003233 
0.001219 -0.033249 -0.003610 
0.001032 -0.033361 -0.003942 
0.001619 -0.035512 0.005070 
0.001584 -0.036018 0.006501 
0.001165 -0.036509 0.008416 
-0.000127 -0.035122 0.002893 
0.000689 -0.035187 0.003306 
0.001175 -0.035039 0.003521 
-0.002843 -0.037729 0.005678 
-0.001445 -0.036853 0.003955 
-0.000933 -0.035816 0.003014 
-0.004203 -0.037600 -0.007836 
-0.002607 -0.037144 -0.008492 
-0.001276 -0.037294 -0.009008 
-0.000970 -0.033307 -0.003347 
-0.000564 -0.033299 -0.003549 
0.000197 -0.033368 -0.003670 
0.004032 -0.037167 -0.005126 
0.002781 -0.035401 -0.003905 
0.002405 -0.033774 -0.002919 
0.005652 -0.036882 0.008864 
0.004109 -0.036484 0.009949 
0.002396 -0.036407 0.010659 
0.003227 -0.032699 -0.002394 
0.003016 -0.032927 -0.001930 
0.003220 -0.033860 -0.000847 
-0.004245 -0.037122 0.009196 
-0.002643 -0.036927 0.010097 
-0.000976 -0.036641 0.010649 
0.007313 -0.037027 -0.005849 
0.008105 -0.036925 -0.004458 
0.008604 -0.037494 -0.002337 
-0.001398 -0.033529 -0.003186 
-0.002076 -0.034462 -0.003664 
-0.003729 -0.036241 -0.004649 
0.005050 -0.037850 0.005728 
0.003501 -0.037109 0.004008 
0.002918 -0.035937 0.002898 
0.001922 -0.034574 0.002591 
0.001562 -0.034449 0.003033 
0.001475 -0.034686 0.003517 
-0.011713 -0.031659 0.013493 
-0.009382 -0.033975 0.011302 
-0.007518 -0.035863 0.009467 
-0.011796 -0.032275 -0.012797 
-0.009757 -0.034991 -0.010819 
-0.007859 -0.036756 -0.008962 
0.012980 -0.031660 0.013350 
0.010682 -0.033866 0.011014 
0.008860 -0.035987 0.009217 
0.011634 -0.032861 -0.013750 
0.009512 -0.035523 -0.011557 
0.007673 -0.037319 -0.009428 
0.002701 -0.034422 0.001012 
0.003063 -0.034466 0.000612 
0.003128 -0.034287 0.000057 
-0.001484 -0.034717 -0.001463 
-0.002025 -0.034776 -0.000678 
-0.002249 -0.034693 -0.000194 
0.002726 -0.033168 -0.001750 
0.002903 -0.033690 -0.001297 
0.003080 -0.033957 -0.000535 
0.001925 -0.034011 -0.002927 
0.001372 -0.033517 -0.003483 
0.001062 -0.033451 -0.003636 
0.003297 -0.033949 -0.000222 
0.003443 -0.033929 -0.000217 
0.000785 -0.033407 -0.003544 
0.000747 -0.033272 -0.003564 
-0.002294 -0.034487 0.000037 
-0.002325 -0.034362 -0.000043 
-0.001084 -0.033847 0.000598 
-0.001720 -0.034473 0.000386 
-0.002063 -0.034568 0.000264 
0.001027 -0.033871 0.002455 
0.001046 -0.033733 0.002430 
-0.000675 -0.034083 0.001743 
0.000070 -0.034267 0.002226 
0.000756 -0.034021 0.002360 
-0.001191 -0.033565 -0.002718 
-0.001198 -0.033753 -0.002651 
0.002662 -0.032982 -0.002211 
0.002657 -0.033093 -0.002204 
0.000448 -0.034122 -0.000328 
0.001666 -0.034981 0.000922 
0.002013 -0.034839 0.001140 
-0.001176 -0.034893 -0.002301 
-0.001118 -0.035105 -0.001512 
-0.000043 -0.034440 -0.001294 
-0.000287 -0.033272 0.000225 
-0.000466 -0.033216 0.000472 
-0.000554 -0.033356 0.000608 
0.002095 -0.033798 0.001492 
0.002172 -0.033918 0.001409 
0.001569 -0.034127 0.001586 
0.001161 -0.033898 0.002118 
0.001094 -0.033989 0.002466 
-0.000876 -0.034053 -0.003104 
-0.000400 -0.033903 -0.003356 
0.000163 -0.033597 -0.003387 
-0.000788 -0.033541 0.001016 
-0.000917 -0.033667 0.001328 
0.014364 -0.029998 -0.016524 
0.015628 -0.029412 0.015992 
-0.015101 -0.029097 0.016105 
-0.014628 -0.029507 -0.015539 
0.020002 0.014415 -0.017143 
0.020038 0.013395 0.019161 
-0.019878 0.014566 0.019231 
-0.021270 0.014185 -0.018302 
0.011185 0.026146 -0.010346 
0.011076 0.026670 0.011424 
-0.010978 0.026672 0.010738 
-0.011145 0.025998 -0.010698 
0.008430 0.040567 -0.007350 
0.007423 0.040788 0.008726 
-0.008501 0.038845 0.008234 
-0.006878 0.040498 -0.007311 
0.022954 -0.005792 -0.023370 
0.022283 -0.008737 0.025189 
-0.022888 -0.008755 0.024142 
-0.023480 -0.005707 -0.024075 
0.001469 0.047287 -0.003535 
0.003796 0.047266 0.001702 
-0.001497 0.047126 0.003638 
-0.003112 0.046966 -0.001694 
0.003472 0.059046 -0.001240 
0.003677 0.058910 -0.000042 
0.002918 0.059221 0.000609 
0.002438 0.059467 -0.000637 
0.001739 0.046672 0.000335 
-0.000494 0.046692 0.001094 
-0.001110 0.046610 -0.000842 
0.000836 0.046710 -0.001581 
0.014882 0.075766 -0.002628 
0.015530 0.075401 -0.001060 
0.016346 0.074495 -0.001868 
0.015823 0.074341 -0.003097 
0.008374 0.069153 -0.001470 
0.009816 0.070113 -0.000275 
0.011186 0.068390 -0.000889 
0.009721 0.067911 -0.002570 
0.015420 0.073722 -0.003651 
0.016006 0.073906 -0.001715 
0.015101 0.075202 -0.000835 
-0.000180 -0.029118 -0.021685 
-0.000475 -0.028562 0.022796 
0.000590 0.015739 -0.024998 
-0.000394 0.015004 0.025735 
0.000492 0.024772 -0.015625 
-0.000811 0.026841 0.015914 
0.000874 0.040866 -0.010008 
-0.000923 0.040732 0.011569 
0.000026 -0.006118 0.032568 
0.000962 -0.004078 -0.032655 
-0.034134 -0.008534 0.000615 
0.031651 -0.007585 0.000128 
-0.028578 0.014812 -0.001018 
0.027030 0.014061 0.000527 
-0.020783 -0.030133 0.000142 
0.020512 -0.030195 -0.000133 
-0.010625 0.039191 -0.000443 
0.011405 0.040001 0.000974 
-0.015657 0.027002 -0.000433 
0.016410 0.026914 0.000468 
0.005777 0.045967 -0.004238 
0.007392 0.045792 -0.000529 
-0.005681 0.045211 0.003989 
-0.006756 0.045125 0.000137 
0.000314 -0.037100 -0.009646 
-0.008730 -0.038111 0.000122 
0.000672 -0.036409 0.010901 
0.009034 -0.037403 -0.000076 
0.003703 -0.034248 -0.000182 
0.000803 -0.033324 -0.003958 
-0.002566 -0.034524 -0.000083 
0.001362 -0.034873 0.003743 
-0.000636 -0.034675 0.002253 
0.006987 -0.037421 0.007512 
0.002486 -0.033205 -0.002484 
-0.005398 -0.037400 0.007777 
0.005854 -0.037897 -0.007233 
-0.005839 -0.037221 -0.006724 
-0.001270 -0.033499 -0.002898 
0.002474 -0.034683 0.002073 
0.002587 -0.033507 -0.002236 
0.003344 -0.034068 -0.000216 
0.000817 -0.033492 -0.003612 
-0.002280 -0.034559 0.000082 
0.001017 -0.033929 0.002448 
-0.000627 -0.033467 0.000759 
0.000152 -0.033934 -0.000787 
0.002128 -0.034271 0.001210 
-0.001096 -0.034474 -0.002492 
0.000588 0.046758 0.001235 
0.000057 0.046761 0.001308 
0.001267 0.046756 0.000888 
-0.001222 0.046702 0.000141 
-0.001194 0.046670 -0.000358 
-0.000938 0.046709 0.000660 
0.001701 0.046729 -0.000826 
0.001862 0.046713 -0.000219 
0.001346 0.046771 -0.001323 
-0.000298 0.046717 -0.001516 
0.000164 0.046753 -0.001593 
-0.000830 0.046689 -0.001270 
0.001741 0.046736 0.000334 
0.000842 0.046774 -0.001580 
-0.000484 0.046755 0.001089 
-0.001099 0.046676 -0.000842 
