-0.001060 0.000219 -0.008460 
-0.000530 0.000219 -0.008573 
-0.002468 0.001713 -0.002496 
-0.002029 0.001713 -0.002814 
-0.006343 0.000219 -0.005985 
-0.005904 0.000219 -0.006304 
-0.004589 0.000219 -0.007259 
-0.004150 0.000219 -0.007578 
-0.003448 0.001713 -0.001238 
-0.003177 0.001713 -0.001708 
-0.008408 0.000219 -0.002850 
-0.008137 0.000219 -0.003319 
-0.007324 0.000219 -0.004727 
-0.007053 0.000219 -0.005197 
-0.003833 0.001713 0.000309 
-0.003776 0.001713 -0.000230 
-0.009019 0.000219 0.000855 
-0.008962 0.000219 0.000315 
-0.008792 0.000219 -0.001302 
-0.008735 0.000219 -0.001841 
-0.003554 0.001713 0.001880 
-0.003722 0.001713 0.001364 
-0.008070 0.000219 0.004487 
-0.008238 0.000219 0.003971 
-0.008740 0.000219 0.002425 
-0.008908 0.000219 0.001909 
-0.002661 0.001713 0.003201 
-0.003024 0.001713 0.002798 
-0.005726 0.000219 0.007420 
-0.006089 0.000219 0.007017 
-0.007177 0.000219 0.005808 
-0.007540 0.000219 0.005405 
-0.001308 0.001713 0.004045 
-0.001804 0.001713 0.003824 
-0.002392 0.000219 0.009145 
-0.002888 0.000219 0.008925 
-0.004373 0.000219 0.008263 
-0.004869 0.000219 0.008043 
0.000271 0.001713 0.004265 
-0.000271 0.001713 0.004265 
0.001355 0.000219 0.009366 
0.000813 0.000219 0.009366 
-0.000813 0.000219 0.009366 
-0.001355 0.000219 0.009366 
0.001804 0.001713 0.003824 
0.001308 0.001713 0.004045 
0.004869 0.000219 0.008043 
0.004373 0.000219 0.008263 
0.002888 0.000219 0.008925 
0.002392 0.000219 0.009145 
0.003024 0.001713 0.002798 
0.002661 0.001713 0.003201 
0.007540 0.000219 0.005405 
0.007177 0.000219 0.005808 
0.006089 0.000219 0.007017 
0.005726 0.000219 0.007420 
0.003722 0.001713 0.001364 
0.003554 0.001713 0.001880 
0.008908 0.000219 0.001909 
0.008740 0.000219 0.002425 
0.008238 0.000219 0.003971 
0.008070 0.000219 0.004487 
0.003776 0.001713 -0.000230 
0.003833 0.001713 0.000309 
0.008735 0.000219 -0.001841 
0.008792 0.000219 -0.001302 
0.008962 0.000219 0.000315 
0.009019 0.000219 0.000855 
0.003177 0.001713 -0.001708 
0.003448 0.001713 -0.001238 
0.007053 0.000219 -0.005197 
0.007324 0.000219 -0.004727 
0.008137 0.000219 -0.003319 
0.008408 0.000219 -0.002850 
0.002029 0.001713 -0.002814 
0.002468 0.001713 -0.002496 
0.004150 0.000219 -0.007578 
0.004589 0.000219 -0.007259 
0.005904 0.000219 -0.006304 
0.006343 0.000219 -0.005985 
0.000530 0.001713 -0.003358 
0.001060 0.001713 -0.003246 
0.000530 0.000219 -0.008573 
0.001060 0.000219 -0.008460 
0.002651 0.000219 -0.008122 
0.003181 0.000219 -0.008009 
-0.005018 0.072352 -0.011859 
-0.004600 0.072352 -0.011947 
-0.003345 0.071041 -0.008102 
-0.002927 0.071041 -0.008191 
-0.001673 0.071041 -0.008457 
-0.001254 0.071041 -0.008546 
-0.000836 0.071697 -0.010691 
-0.001673 0.071697 -0.010513 
-0.000836 0.071369 -0.009663 
-0.000836 0.073008 -0.014804 
-0.001673 0.073008 -0.014626 
-0.000836 0.072680 -0.013775 
-0.004182 0.073008 -0.014092 
-0.005018 0.073008 -0.013915 
-0.004182 0.072680 -0.013064 
-0.009586 0.072352 -0.008754 
-0.009240 0.072352 -0.009006 
-0.006530 0.071041 -0.006003 
-0.006184 0.071041 -0.006254 
-0.005147 0.071041 -0.007008 
-0.004801 0.071041 -0.007259 
-0.005291 0.071697 -0.009389 
-0.005983 0.071697 -0.008886 
-0.004873 0.071369 -0.008450 
-0.006964 0.073008 -0.013146 
-0.007656 0.073008 -0.012643 
-0.006546 0.072680 -0.012206 
-0.009731 0.073008 -0.011135 
-0.010423 0.073008 -0.010633 
-0.009313 0.072680 -0.010196 
-0.012497 0.072352 -0.004060 
-0.012283 0.072352 -0.004431 
-0.008586 0.071041 -0.002790 
-0.008372 0.071041 -0.003160 
-0.007731 0.071041 -0.004271 
-0.007517 0.071041 -0.004641 
-0.008832 0.071697 -0.006387 
-0.009259 0.071697 -0.005646 
-0.008068 0.071369 -0.005699 
-0.011888 0.073008 -0.009138 
-0.012315 0.073008 -0.008398 
-0.011124 0.072680 -0.008451 
-0.013598 0.073008 -0.006177 
-0.014025 0.073008 -0.005436 
-0.012834 0.072680 -0.005489 
-0.013247 0.072352 0.001412 
-0.013202 0.072352 0.000987 
-0.009157 0.071041 0.000982 
-0.009113 0.071041 0.000557 
-0.008979 0.071041 -0.000719 
-0.008934 0.071041 -0.001144 
-0.010845 0.071697 -0.002205 
-0.010934 0.071697 -0.001354 
-0.009867 0.071369 -0.001887 
-0.014756 0.073008 -0.003475 
-0.014845 0.073008 -0.002625 
-0.013778 0.072680 -0.003158 
-0.015113 0.073008 -0.000074 
-0.015203 0.073008 0.000776 
-0.014135 0.072680 0.000244 
-0.011706 0.072352 0.006716 
-0.011839 0.072352 0.006309 
-0.008145 0.071041 0.004660 
-0.008277 0.071041 0.004253 
-0.008674 0.071041 0.003033 
-0.008806 0.071041 0.002627 
-0.010983 0.071697 0.002435 
-0.010718 0.071697 0.003248 
-0.009960 0.071369 0.002328 
-0.015072 0.073008 0.002865 
-0.014808 0.073008 0.003678 
-0.014050 0.072680 0.002757 
-0.014016 0.073008 0.006117 
-0.013751 0.073008 0.006931 
-0.012993 0.072680 0.006010 
-0.008142 0.072352 0.010935 
-0.008428 0.072352 0.010617 
-0.005725 0.071041 0.007608 
-0.006011 0.071041 0.007290 
-0.006869 0.071041 0.006337 
-0.007155 0.071041 0.006019 
-0.009222 0.071697 0.006730 
-0.008650 0.071697 0.007365 
-0.008331 0.071369 0.006216 
-0.012783 0.073008 0.008786 
-0.012211 0.073008 0.009421 
-0.011893 0.072680 0.008272 
-0.010495 0.073008 0.011327 
-0.009922 0.073008 0.011963 
-0.009604 0.072680 0.010813 
-0.003169 0.072352 0.013339 
-0.003560 0.072352 0.013165 
-0.002314 0.071041 0.009316 
-0.002705 0.071041 0.009142 
-0.003876 0.071041 0.008621 
-0.004267 0.071041 0.008447 
-0.005866 0.071697 0.009937 
-0.005085 0.071697 0.010284 
-0.005262 0.071369 0.009105 
-0.008283 0.073008 0.013263 
-0.007502 0.073008 0.013611 
-0.007679 0.072680 0.012432 
-0.005159 0.073008 0.014655 
-0.004378 0.073008 0.015002 
-0.004555 0.072680 0.013823 
0.002351 0.072352 0.013513 
0.001924 0.072352 0.013513 
0.001496 0.071041 0.009490 
0.001069 0.071041 0.009490 
-0.000214 0.071041 0.009490 
-0.000641 0.071041 0.009490 
-0.001496 0.071697 0.011501 
-0.000641 0.071697 0.011501 
-0.001282 0.071369 0.010496 
-0.002351 0.073008 0.015524 
-0.001496 0.073008 0.015524 
-0.002137 0.072680 0.014518 
0.001069 0.073008 0.015524 
0.001924 0.073008 0.015524 
0.001282 0.072680 0.014518 
0.007465 0.072352 0.011426 
0.007075 0.072352 0.011600 
0.005048 0.071041 0.008099 
0.004658 0.071041 0.008273 
0.003486 0.071041 0.008795 
0.003095 0.071041 0.008969 
0.003132 0.071697 0.011154 
0.003913 0.071697 0.010806 
0.002919 0.071369 0.010148 
0.003987 0.073008 0.015176 
0.004768 0.073008 0.014828 
0.003774 0.072680 0.014171 
0.007112 0.073008 0.013785 
0.007893 0.073008 0.013437 
0.006898 0.072680 0.012780 
0.011288 0.072352 0.007440 
0.011002 0.072352 0.007758 
0.007727 0.071041 0.005384 
0.007441 0.071041 0.005702 
0.006583 0.071041 0.006655 
0.006297 0.071041 0.006972 
0.007219 0.071697 0.008953 
0.007791 0.071697 0.008318 
0.006615 0.071369 0.008122 
0.009636 0.073008 0.012280 
0.010208 0.073008 0.011645 
0.009032 0.072680 0.011449 
0.011925 0.073008 0.009739 
0.012497 0.073008 0.009103 
0.011321 0.072680 0.008907 
0.013160 0.072352 0.002243 
0.013028 0.072352 0.002650 
0.009070 0.071041 0.001814 
0.008938 0.071041 0.002220 
0.008541 0.071041 0.003440 
0.008409 0.071041 0.003846 
0.010058 0.071697 0.005281 
0.010322 0.071697 0.004468 
0.009168 0.071369 0.004767 
0.013619 0.073008 0.007337 
0.013883 0.073008 0.006524 
0.012729 0.072680 0.006823 
0.014676 0.073008 0.004085 
0.014940 0.073008 0.003271 
0.013786 0.072680 0.003571 
0.012756 0.072352 -0.003265 
0.012800 0.072352 -0.002840 
0.008844 0.071041 -0.001994 
0.008889 0.071041 -0.001569 
0.009023 0.071041 -0.000294 
0.009068 0.071041 0.000131 
0.011157 0.071697 0.000772 
0.011068 0.071697 -0.000079 
0.010135 0.071369 0.000664 
0.015247 0.073008 0.001201 
0.015158 0.073008 0.000351 
0.014225 0.072680 0.001094 
0.014890 0.073008 -0.002200 
0.014800 0.073008 -0.003050 
0.013867 0.072680 -0.002307 
0.010146 0.072352 -0.008133 
0.010360 0.072352 -0.007763 
0.007090 0.071041 -0.005381 
0.007304 0.071041 -0.005011 
0.007945 0.071041 -0.003900 
0.008159 0.071041 -0.003530 
0.010328 0.071697 -0.003795 
0.009900 0.071697 -0.004536 
0.009350 0.071369 -0.003478 
0.014239 0.073008 -0.005066 
0.013811 0.073008 -0.005806 
0.013261 0.072680 -0.004748 
0.012529 0.073008 -0.008028 
0.012101 0.073008 -0.008768 
0.011551 0.072680 -0.007710 
0.005782 0.072352 -0.011518 
0.006128 0.072352 -0.011267 
0.004109 0.071041 -0.007762 
0.004455 0.071041 -0.007510 
0.005493 0.071041 -0.006757 
0.005839 0.071041 -0.006505 
0.007712 0.071697 -0.007630 
0.007021 0.071697 -0.008132 
0.006948 0.071369 -0.006942 
0.010768 0.073008 -0.010381 
0.010077 0.073008 -0.010884 
0.010004 0.072680 -0.009694 
0.008002 0.073008 -0.012392 
0.007310 0.073008 -0.012894 
0.007238 0.072680 -0.011704 
0.004182 0.073008 -0.014092 
0.004182 0.072680 -0.013064 
0.005018 0.073008 -0.013915 
0.000836 0.073008 -0.014804 
0.000836 0.072680 -0.013775 
0.001673 0.073008 -0.014626 
0.000836 0.071697 -0.010691 
0.000836 0.071369 -0.009663 
0.001673 0.071697 -0.010513 
0.001673 0.071041 -0.008457 
0.001254 0.071041 -0.008546 
0.003345 0.071041 -0.008102 
0.002927 0.071041 -0.008191 
0.005018 0.072352 -0.011859 
0.004600 0.072352 -0.011947 
-0.000530 0.000889 -0.016395 
-0.001060 0.000889 -0.016282 
-0.000530 0.000054 -0.011180 
-0.001060 0.000054 -0.011067 
-0.002651 0.000054 -0.010729 
-0.003181 0.000054 -0.010617 
-0.004772 0.000471 -0.012886 
-0.003712 0.000471 -0.013111 
-0.004242 0.000263 -0.011695 
-0.006893 0.001306 -0.017649 
-0.005833 0.001306 -0.017875 
-0.006363 0.001098 -0.016459 
-0.002651 0.001306 -0.018551 
-0.001591 0.001306 -0.018776 
-0.002121 0.001098 -0.017360 
-0.012339 0.001306 -0.014238 
-0.011809 0.001098 -0.013047 
-0.013216 0.001306 -0.013601 
-0.008831 0.001306 -0.016787 
-0.008300 0.001098 -0.015596 
-0.009708 0.001306 -0.016150 
-0.006710 0.000471 -0.012023 
-0.006179 0.000263 -0.010832 
-0.007587 0.000471 -0.011386 
-0.006526 0.000054 -0.009004 
-0.006088 0.000054 -0.009323 
-0.008280 0.000054 -0.007729 
-0.007842 0.000054 -0.008048 
-0.012156 0.000889 -0.011219 
-0.011717 0.000889 -0.011537 
-0.017242 0.001306 -0.007950 
-0.016273 0.001098 -0.007078 
-0.017784 0.001306 -0.007011 
-0.015074 0.001306 -0.011706 
-0.014105 0.001098 -0.010833 
-0.015616 0.001306 -0.010767 
-0.011199 0.000471 -0.008217 
-0.010230 0.000263 -0.007344 
-0.011741 0.000471 -0.007278 
-0.009803 0.000054 -0.005533 
-0.009532 0.000054 -0.006003 
-0.010887 0.000054 -0.003655 
-0.010616 0.000054 -0.004125 
-0.015847 0.000889 -0.005267 
-0.015576 0.000889 -0.005736 
-0.019164 0.001306 -0.000212 
-0.017924 0.001098 0.000191 
-0.019277 0.001306 0.000866 
-0.018711 0.001306 -0.004525 
-0.017471 0.001098 -0.004122 
-0.018824 0.001306 -0.003446 
-0.013751 0.000471 -0.002913 
-0.012512 0.000263 -0.002510 
-0.013865 0.000471 -0.001835 
-0.011385 0.000054 -0.001029 
-0.011328 0.000054 -0.001568 
-0.011612 0.000054 0.001127 
-0.011555 0.000054 0.000588 
-0.016798 0.000889 0.001672 
-0.016741 0.000889 0.001133 
-0.017772 0.001306 0.007639 
-0.016476 0.001098 0.007503 
-0.017437 0.001306 0.008670 
-0.019112 0.001306 0.003515 
-0.017816 0.001098 0.003379 
-0.018777 0.001306 0.004546 
-0.013926 0.000471 0.002970 
-0.012630 0.000263 0.002834 
-0.013591 0.000471 0.004001 
-0.010998 0.000054 0.003728 
-0.011166 0.000054 0.003213 
-0.010328 0.000054 0.005791 
-0.010496 0.000054 0.005275 
-0.014844 0.000889 0.008398 
-0.015012 0.000889 0.007882 
-0.013307 0.001306 0.014245 
-0.012178 0.001098 0.013594 
-0.012582 0.001306 0.015051 
-0.016209 0.001306 0.011023 
-0.015080 0.001098 0.010371 
-0.015484 0.001306 0.011828 
-0.011693 0.000471 0.008415 
-0.010564 0.000263 0.007764 
-0.010968 0.000471 0.009221 
-0.008710 0.000054 0.007917 
-0.009073 0.000054 0.007515 
-0.007259 0.000054 0.009529 
-0.007622 0.000054 0.009126 
-0.010324 0.000889 0.013747 
-0.010687 0.000889 0.013345 
-0.006542 0.001306 0.018464 
-0.005775 0.001098 0.017410 
-0.005551 0.001306 0.018905 
-0.010503 0.001306 0.016701 
-0.009737 0.001098 0.015646 
-0.009513 0.001306 0.017142 
-0.007438 0.000471 0.012482 
-0.006672 0.000263 0.011427 
-0.006448 0.000471 0.012923 
-0.004915 0.000054 0.010814 
-0.005411 0.000054 0.010593 
-0.002935 0.000054 0.011696 
-0.003430 0.000054 0.011475 
-0.004019 0.000889 0.016796 
-0.004514 0.000889 0.016576 
0.001355 0.001306 0.019567 
0.001626 0.001098 0.018292 
0.002439 0.001306 0.019567 
-0.002981 0.001306 0.019567 
-0.002710 0.001098 0.018292 
-0.001897 0.001306 0.019567 
-0.001897 0.000471 0.014466 
-0.001626 0.000263 0.013191 
-0.000813 0.000471 0.014466 
-0.000271 0.000054 0.011916 
-0.000813 0.000054 0.011916 
0.001897 0.000054 0.011916 
0.001355 0.000054 0.011916 
0.002981 0.000889 0.017017 
0.002439 0.000889 0.017017 
0.009018 0.001306 0.017362 
0.008747 0.001098 0.016087 
0.010008 0.001306 0.016921 
0.005056 0.001306 0.019126 
0.004785 0.001098 0.017851 
0.006046 0.001306 0.018685 
0.003972 0.000471 0.014025 
0.003701 0.000263 0.012750 
0.004962 0.000471 0.013584 
0.004420 0.000054 0.011034 
0.003925 0.000054 0.011255 
0.006401 0.000054 0.010152 
0.005906 0.000054 0.010373 
0.009466 0.000889 0.014371 
0.008971 0.000889 0.014591 
0.015121 0.001306 0.012231 
0.014355 0.001098 0.011177 
0.015846 0.001306 0.011426 
0.012219 0.001306 0.015454 
0.011453 0.001098 0.014399 
0.012945 0.001306 0.014648 
0.009154 0.000471 0.011235 
0.008388 0.000263 0.010181 
0.009880 0.000471 0.010430 
0.008347 0.000054 0.008320 
0.007984 0.000054 0.008723 
0.009798 0.000054 0.006709 
0.009435 0.000054 0.007112 
0.014314 0.000889 0.009316 
0.013951 0.000889 0.009719 
0.018610 0.001306 0.005062 
0.017481 0.001098 0.004410 
0.018945 0.001306 0.004030 
0.017270 0.001306 0.009186 
0.016141 0.001098 0.008534 
0.017605 0.001306 0.008155 
0.012754 0.000471 0.006579 
0.011625 0.000263 0.005927 
0.013089 0.000471 0.005548 
0.010831 0.000054 0.004244 
0.010663 0.000054 0.004759 
0.011501 0.000054 0.002182 
0.011333 0.000054 0.002697 
0.016687 0.000889 0.002727 
0.016519 0.000889 0.003242 
0.018881 0.001306 -0.002907 
0.017584 0.001098 -0.003044 
0.018767 0.001306 -0.003986 
0.019334 0.001306 0.001406 
0.018037 0.001098 0.001269 
0.019221 0.001306 0.000327 
0.014148 0.000471 0.000860 
0.012852 0.000263 0.000724 
0.014035 0.000471 -0.000218 
0.011442 0.000054 -0.000490 
0.011498 0.000054 0.000049 
0.011215 0.000054 -0.002647 
0.011272 0.000054 -0.002108 
0.016174 0.000889 -0.004258 
0.016231 0.000889 -0.003719 
0.015887 0.001306 -0.010297 
0.014647 0.001098 -0.009895 
0.015345 0.001306 -0.011236 
0.018055 0.001306 -0.006542 
0.016815 0.001098 -0.006139 
0.017513 0.001306 -0.007481 
0.013096 0.000471 -0.004930 
0.011856 0.000263 -0.004528 
0.012554 0.000471 -0.005869 
0.010074 0.000054 -0.005064 
0.010345 0.000054 -0.004594 
0.008990 0.000054 -0.006941 
0.009261 0.000054 -0.006472 
0.012865 0.000889 -0.010431 
0.013136 0.000889 -0.009961 
0.010146 0.001306 -0.015831 
0.009177 0.001098 -0.014959 
0.009269 0.001306 -0.016468 
0.013655 0.001306 -0.013282 
0.012686 0.001098 -0.012410 
0.012778 0.001306 -0.013919 
0.009780 0.000471 -0.009793 
0.008811 0.000263 -0.008920 
0.008902 0.000471 -0.010430 
0.006965 0.000054 -0.008685 
0.007403 0.000054 -0.008367 
0.005211 0.000054 -0.009960 
0.005649 0.000054 -0.009641 
0.007332 0.000889 -0.014724 
0.007770 0.000889 -0.014405 
0.006363 0.000889 -0.015155 
0.005833 0.000889 -0.015268 
0.004242 0.000054 -0.010391 
0.003712 0.000054 -0.010504 
0.002121 0.000054 -0.010842 
0.001591 0.000054 -0.010955 
0.001060 0.000471 -0.013675 
0.002121 0.000471 -0.013449 
0.001060 0.000263 -0.012371 
0.001060 0.001306 -0.018889 
0.002121 0.001306 -0.018664 
0.001060 0.001098 -0.017586 
0.005302 0.001306 -0.017988 
0.006363 0.001306 -0.017762 
0.005302 0.001098 -0.016684 
-0.000418 0.070200 -0.004612 
-0.001254 0.070542 -0.006490 
-0.001673 0.070542 -0.006401 
-0.001673 0.070200 -0.004345 
-0.002437 0.070200 -0.004005 
-0.003965 0.070542 -0.005381 
-0.004310 0.070542 -0.005129 
-0.003474 0.070200 -0.003251 
-0.004034 0.070200 -0.002630 
-0.005989 0.070542 -0.003265 
-0.006203 0.070542 -0.002895 
-0.004675 0.070200 -0.001519 
-0.004933 0.070200 -0.000724 
-0.006978 0.070542 -0.000509 
-0.007023 0.070542 -0.000083 
-0.005068 0.070200 0.000552 
-0.004980 0.070200 0.001384 
-0.006761 0.070542 0.002412 
-0.006629 0.070542 0.002818 
-0.004584 0.070200 0.002603 
-0.004166 0.070200 0.003328 
-0.005374 0.070542 0.004991 
-0.005088 0.070542 0.005309 
-0.003307 0.070200 0.004281 
-0.002631 0.070200 0.004772 
-0.003058 0.070542 0.006784 
-0.002668 0.070542 0.006957 
-0.001459 0.070200 0.005294 
-0.000641 0.070200 0.005468 
-0.000214 0.070542 0.007479 
0.000214 0.070542 0.007479 
0.000641 0.070200 0.005468 
0.001459 0.070200 0.005294 
0.002668 0.070542 0.006957 
0.003058 0.070542 0.006784 
0.002631 0.070200 0.004772 
0.003307 0.070200 0.004281 
0.005088 0.070542 0.005309 
0.005374 0.070542 0.004991 
0.004166 0.070200 0.003328 
0.004584 0.070200 0.002603 
0.006629 0.070542 0.002818 
0.006761 0.070542 0.002412 
0.004980 0.070200 0.001384 
0.005068 0.070200 0.000552 
0.007023 0.070542 -0.000083 
0.006978 0.070542 -0.000509 
0.004933 0.070200 -0.000724 
0.004675 0.070200 -0.001519 
0.006203 0.070542 -0.002895 
0.005989 0.070542 -0.003265 
0.004034 0.070200 -0.002630 
0.003474 0.070200 -0.003251 
0.004310 0.070542 -0.005129 
0.003965 0.070542 -0.005381 
0.002437 0.070200 -0.004005 
0.001673 0.070200 -0.004345 
0.001673 0.070542 -0.006401 
0.001254 0.070542 -0.006490 
0.000418 0.070200 -0.004612 
-0.007929 0.070421 -0.019426 
-0.008621 0.069449 -0.020979 
-0.004873 0.072364 -0.016674 
-0.004037 0.072364 -0.016852 
-0.005420 0.070421 -0.019959 
-0.006948 0.069449 -0.021335 
-0.001528 0.068478 -0.024188 
-0.001528 0.069449 -0.022487 
-0.004584 0.066535 -0.026939 
-0.006112 0.066535 -0.026615 
-0.006112 0.068478 -0.023213 
-0.004584 0.069449 -0.021837 
-0.015324 0.070421 -0.014483 
-0.016588 0.069449 -0.015621 
-0.011413 0.072364 -0.013212 
-0.010721 0.072364 -0.013715 
-0.013249 0.070421 -0.015991 
-0.015204 0.069449 -0.016626 
-0.011413 0.068478 -0.021437 
-0.010721 0.069449 -0.019883 
-0.015324 0.066535 -0.022708 
-0.016588 0.066535 -0.021790 
-0.015204 0.068478 -0.018682 
-0.013249 0.069449 -0.018047 
-0.020069 0.070421 -0.006960 
-0.021686 0.069449 -0.007486 
-0.015979 0.072364 -0.007390 
-0.015551 0.072364 -0.008131 
-0.018786 0.070421 -0.009182 
-0.020831 0.069449 -0.008967 
-0.019324 0.068478 -0.014904 
-0.018060 0.069449 -0.013766 
-0.023414 0.066535 -0.014474 
-0.024195 0.066535 -0.013121 
-0.021667 0.068478 -0.010845 
-0.019623 0.069449 -0.011060 
-0.021344 0.070421 0.001842 
-0.023035 0.069449 0.002020 
-0.017782 0.072364 -0.000214 
-0.017693 0.072364 -0.001064 
-0.021075 0.070421 -0.000709 
-0.022856 0.069449 0.000319 
-0.023894 0.068478 -0.005717 
-0.022277 0.069449 -0.005192 
-0.027456 0.066535 -0.003661 
-0.027619 0.066535 -0.002108 
-0.024384 0.068478 -0.001057 
-0.022603 0.069449 -0.002085 
-0.018928 0.070421 0.010402 
-0.020401 0.069449 0.011252 
-0.016511 0.072364 0.007075 
-0.016775 0.072364 0.006262 
-0.019721 0.070421 0.007963 
-0.020929 0.069449 0.009626 
-0.024333 0.068478 0.004534 
-0.022642 0.069449 0.004356 
-0.026750 0.066535 0.007861 
-0.026267 0.066535 0.009346 
-0.022885 0.068478 0.008991 
-0.021676 0.069449 0.007327 
-0.013239 0.070421 0.017240 
-0.014239 0.069449 0.018615 
-0.012384 0.072364 0.013217 
-0.012957 0.072364 0.012582 
-0.014956 0.070421 0.015333 
-0.015383 0.069449 0.017345 
-0.020564 0.068478 0.014077 
-0.019091 0.069449 0.013227 
-0.021419 0.066535 0.018099 
-0.020374 0.066535 0.019260 
-0.017428 0.068478 0.017560 
-0.017001 0.069449 0.015548 
-0.005262 0.070421 0.021172 
-0.005615 0.069449 0.022836 
-0.006117 0.072364 0.017150 
-0.006898 0.072364 0.016802 
-0.007605 0.070421 0.020129 
-0.007178 0.069449 0.022140 
-0.013239 0.068478 0.021262 
-0.012240 0.069449 0.019886 
-0.012384 0.066535 0.025284 
-0.010957 0.066535 0.025920 
-0.008958 0.068478 0.023168 
-0.009386 0.069449 0.021157 
0.003626 0.070421 0.021520 
0.003979 0.069449 0.023183 
0.001209 0.072364 0.018193 
0.000354 0.072364 0.018193 
0.001061 0.070421 0.021520 
0.002269 0.069449 0.023183 
-0.003626 0.068478 0.024847 
-0.003272 0.069449 0.023183 
-0.001209 0.066535 0.028174 
0.000354 0.066535 0.028174 
0.001061 0.068478 0.024847 
-0.000148 0.069449 0.023183 
0.011886 0.070421 0.018223 
0.012886 0.069449 0.019599 
0.008325 0.072364 0.016167 
0.007544 0.072364 0.016514 
0.009543 0.070421 0.019266 
0.011324 0.069449 0.020294 
0.006615 0.068478 0.024211 
0.006261 0.069449 0.022548 
0.010176 0.066535 0.026268 
0.011603 0.066535 0.025632 
0.010896 0.068478 0.022305 
0.009116 0.069449 0.021277 
0.018092 0.070421 0.011851 
0.019564 0.069449 0.012701 
0.014002 0.072364 0.011421 
0.013430 0.072364 0.012056 
0.016375 0.070421 0.013757 
0.018420 0.069449 0.013972 
0.015712 0.068478 0.019466 
0.014712 0.069449 0.018090 
0.019802 0.066535 0.019896 
0.020847 0.066535 0.018735 
0.018848 0.068478 0.015983 
0.016803 0.069449 0.015768 
0.021169 0.070421 0.003506 
0.022860 0.069449 0.003683 
0.017258 0.072364 0.004776 
0.016994 0.072364 0.005590 
0.020376 0.070421 0.005945 
0.022332 0.069449 0.005310 
0.022092 0.068478 0.011430 
0.020619 0.069449 0.010580 
0.026003 0.066535 0.010159 
0.026486 0.066535 0.008674 
0.023540 0.068478 0.006973 
0.021585 0.069449 0.007609 
0.020586 0.070421 -0.005370 
0.022203 0.069449 -0.005895 
0.017530 0.072364 -0.002618 
0.017619 0.072364 -0.001768 
0.020854 0.070421 -0.002819 
0.022382 0.069449 -0.004194 
0.024652 0.068478 0.001494 
0.022961 0.069449 0.001317 
0.027708 0.066535 -0.001257 
0.027545 0.066535 -0.002811 
0.024162 0.068478 -0.003166 
0.022634 0.069449 -0.001791 
0.016443 0.070421 -0.013240 
0.017707 0.069449 -0.014378 
0.014770 0.072364 -0.009483 
0.015198 0.072364 -0.008743 
0.017726 0.070421 -0.011019 
0.018562 0.069449 -0.012897 
0.022950 0.068478 -0.008624 
0.021333 0.069449 -0.008098 
0.024623 0.066535 -0.012381 
0.023841 0.066535 -0.013733 
0.020607 0.068478 -0.012682 
0.019770 0.069449 -0.010804 
0.009457 0.070421 -0.018745 
0.010149 0.069449 -0.020299 
0.009457 0.072364 -0.014633 
0.010149 0.072364 -0.014131 
0.011532 0.070421 -0.017238 
0.011532 0.069449 -0.019294 
0.017279 0.068478 -0.017175 
0.016016 0.069449 -0.016037 
0.017279 0.066535 -0.021287 
0.016016 0.066535 -0.022205 
0.013488 0.068478 -0.019929 
0.013488 0.069449 -0.017873 
0.000836 0.070421 -0.020933 
0.000836 0.069449 -0.022634 
0.002509 0.072364 -0.017177 
0.003345 0.072364 -0.016999 
0.003345 0.070421 -0.020400 
0.002509 0.069449 -0.022279 
0.008621 0.068478 -0.022680 
0.007929 0.069449 -0.021126 
0.006948 0.066535 -0.026437 
0.005420 0.066535 -0.026762 
0.004037 0.068478 -0.023654 
0.004873 0.069449 -0.021776 
-0.011979 0.060102 -0.030221 
-0.012406 0.058281 -0.031181 
-0.008068 0.063743 -0.028951 
-0.006540 0.063743 -0.029275 
-0.007395 0.060102 -0.031196 
-0.009350 0.058281 -0.031831 
-0.001956 0.056461 -0.034454 
-0.001956 0.058281 -0.033403 
-0.005867 0.052820 -0.035725 
-0.007822 0.052820 -0.035309 
-0.007822 0.056461 -0.033207 
-0.005867 0.058281 -0.032572 
-0.023414 0.060102 -0.022698 
-0.024195 0.058281 -0.023402 
-0.019324 0.063743 -0.023128 
-0.018060 0.063743 -0.024046 
-0.019623 0.060102 -0.025453 
-0.021667 0.058281 -0.025238 
-0.015979 0.056461 -0.030642 
-0.015551 0.058281 -0.029682 
-0.020069 0.052820 -0.030212 
-0.021686 0.052820 -0.029037 
-0.020831 0.056461 -0.027116 
-0.018786 0.058281 -0.027331 
-0.030801 0.060102 -0.011175 
-0.031800 0.058281 -0.011499 
-0.027240 0.063743 -0.013231 
-0.026458 0.063743 -0.014584 
-0.028458 0.060102 -0.015233 
-0.030238 0.058281 -0.014205 
-0.027240 0.056461 -0.021455 
-0.026458 0.058281 -0.020752 
-0.030801 0.052820 -0.019399 
-0.031800 0.052820 -0.017668 
-0.030238 0.056461 -0.016261 
-0.028458 0.058281 -0.017289 
-0.032862 0.060102 0.002357 
-0.033907 0.058281 0.002467 
-0.030445 0.063743 -0.000970 
-0.030282 0.063743 -0.002523 
-0.032372 0.060102 -0.002303 
-0.033581 0.058281 -0.000640 
-0.033790 0.056461 -0.008483 
-0.032791 0.058281 -0.008158 
-0.036207 0.052820 -0.005156 
-0.036416 0.052820 -0.003168 
-0.034417 0.056461 -0.002518 
-0.033208 0.058281 -0.004182 
-0.029241 0.060102 0.015558 
-0.030151 0.058281 0.016083 
-0.028386 0.063743 0.011535 
-0.028869 0.063743 0.010050 
-0.030689 0.060102 0.011101 
-0.031117 0.058281 0.013112 
-0.034498 0.056461 0.006032 
-0.033453 0.058281 0.005922 
-0.035353 0.052820 0.010054 
-0.034735 0.052820 0.011956 
-0.032645 0.056461 0.011736 
-0.032217 0.058281 0.009725 
-0.020564 0.060102 0.026144 
-0.021182 0.058281 0.026994 
-0.021419 0.063743 0.022122 
-0.022464 0.063743 0.020961 
-0.023700 0.060102 0.022661 
-0.023272 0.058281 0.024673 
-0.029241 0.056461 0.019580 
-0.028331 0.058281 0.019055 
-0.028386 0.052820 0.023603 
-0.027048 0.052820 0.025088 
-0.025228 0.056461 0.024037 
-0.025655 0.058281 0.022026 
-0.008331 0.060102 0.032286 
-0.008550 0.058281 0.033314 
-0.010748 0.063743 0.028959 
-0.012176 0.063743 0.028324 
-0.012613 0.060102 0.030380 
-0.011404 0.058281 0.032043 
-0.018928 0.056461 0.029819 
-0.018310 0.058281 0.028968 
-0.016511 0.052820 0.033146 
-0.014684 0.052820 0.033959 
-0.013449 0.056461 0.032258 
-0.014657 0.058281 0.030595 
0.005342 0.060102 0.032921 
0.005561 0.058281 0.033949 
0.001781 0.063743 0.030865 
0.000219 0.063743 0.030865 
0.000656 0.060102 0.032921 
0.002436 0.058281 0.033949 
-0.005342 0.056461 0.034978 
-0.005123 0.058281 0.033949 
-0.001781 0.052820 0.037034 
0.000219 0.052820 0.037034 
0.000656 0.056461 0.034978 
-0.001125 0.058281 0.033949 
0.018092 0.060102 0.027940 
0.018709 0.058281 0.028791 
0.014002 0.063743 0.027511 
0.012575 0.063743 0.028146 
0.013810 0.060102 0.029847 
0.015855 0.058281 0.030061 
0.009168 0.056461 0.034164 
0.008949 0.058281 0.033136 
0.013257 0.052820 0.034594 
0.015084 0.052820 0.033781 
0.014647 0.056461 0.031725 
0.012602 0.058281 0.031510 
0.027713 0.060102 0.018204 
0.028623 0.058281 0.018730 
0.023802 0.063743 0.019475 
0.022757 0.063743 0.020636 
0.024577 0.060102 0.021687 
0.026533 0.058281 0.021052 
0.022092 0.056461 0.027520 
0.021474 0.058281 0.026670 
0.026003 0.052820 0.026249 
0.027341 0.052820 0.024763 
0.026105 0.056461 0.023063 
0.024150 0.058281 0.023698 
0.032543 0.060102 0.005397 
0.033588 0.058281 0.005506 
0.029487 0.063743 0.008148 
0.029004 0.063743 0.009634 
0.031094 0.060102 0.009854 
0.032622 0.058281 0.008478 
0.031197 0.056461 0.016193 
0.030286 0.058281 0.015668 
0.034253 0.052820 0.013441 
0.034870 0.052820 0.011540 
0.033050 0.056461 0.010489 
0.031522 0.058281 0.011865 
0.031745 0.060102 -0.008268 
0.032745 0.058281 -0.008593 
0.030073 0.063743 -0.004511 
0.030236 0.063743 -0.002958 
0.032235 0.060102 -0.003607 
0.033071 0.058281 -0.005486 
0.034907 0.056461 0.002142 
0.033862 0.058281 0.002033 
0.036580 0.052820 -0.001614 
0.036371 0.052820 -0.003603 
0.034280 0.056461 -0.003822 
0.033444 0.058281 -0.001944 
0.025459 0.060102 -0.020427 
0.026240 0.058281 -0.021131 
0.025459 0.063743 -0.016315 
0.026240 0.063743 -0.014962 
0.027802 0.060102 -0.016369 
0.027802 0.058281 -0.018425 
0.032582 0.056461 -0.012203 
0.031582 0.058281 -0.011878 
0.032582 0.052820 -0.016315 
0.031582 0.052820 -0.018046 
0.029583 0.056461 -0.017397 
0.029583 0.058281 -0.015341 
0.014770 0.060102 -0.028978 
0.015198 0.058281 -0.029938 
0.016443 0.063743 -0.025222 
0.017707 0.063743 -0.024303 
0.018562 0.060102 -0.026224 
0.017726 0.058281 -0.028102 
0.024623 0.056461 -0.024362 
0.023841 0.058281 -0.023659 
0.022950 0.052820 -0.028119 
0.021333 0.052820 -0.029294 
0.019770 0.056461 -0.027887 
0.020607 0.058281 -0.026009 
0.001528 0.060102 -0.032443 
0.001528 0.058281 -0.033494 
0.004584 0.063743 -0.029691 
0.006112 0.063743 -0.029366 
0.006112 0.060102 -0.031468 
0.004584 0.058281 -0.032844 
0.012406 0.056461 -0.032233 
0.011979 0.058281 -0.031272 
0.009350 0.052820 -0.034984 
0.007395 0.052820 -0.035400 
0.006540 0.056461 -0.033479 
0.008068 0.058281 -0.032104 
-0.013957 0.044728 -0.035715 
-0.014046 0.042637 -0.035916 
-0.009867 0.048909 -0.036145 
-0.007911 0.048909 -0.036561 
-0.008090 0.044728 -0.036962 
-0.010135 0.042637 -0.036747 
-0.002045 0.040547 -0.038687 
-0.002045 0.042637 -0.038467 
-0.006135 0.036365 -0.038257 
-0.008180 0.036365 -0.037822 
-0.008180 0.040547 -0.037383 
-0.006135 0.042637 -0.037598 
-0.027456 0.044728 -0.026913 
-0.027619 0.042637 -0.027060 
-0.023894 0.048909 -0.028969 
-0.022277 0.048909 -0.030144 
-0.022603 0.044728 -0.030438 
-0.024384 0.042637 -0.029410 
-0.017782 0.040547 -0.034472 
-0.017693 0.042637 -0.034272 
-0.021344 0.036365 -0.032416 
-0.023035 0.036365 -0.031187 
-0.022856 0.040547 -0.030786 
-0.021075 0.042637 -0.031814 
-0.036207 0.044728 -0.013381 
-0.036416 0.042637 -0.013449 
-0.033790 0.048909 -0.016708 
-0.032791 0.048909 -0.018439 
-0.033208 0.044728 -0.018575 
-0.034417 0.042637 -0.016911 
-0.030445 0.040547 -0.024221 
-0.030282 0.042637 -0.024074 
-0.032862 0.036365 -0.020894 
-0.033907 0.036365 -0.019084 
-0.033581 0.040547 -0.018790 
-0.032372 0.042637 -0.020453 
-0.038698 0.044728 0.002541 
-0.038917 0.042637 0.002564 
-0.037843 0.048909 -0.001482 
-0.037634 0.048909 -0.003470 
-0.038071 0.044728 -0.003424 
-0.038499 0.042637 -0.001413 
-0.037843 0.040547 -0.009706 
-0.037634 0.042637 -0.009638 
-0.038698 0.036365 -0.005684 
-0.038917 0.036365 -0.003605 
-0.038499 0.040547 -0.003469 
-0.038071 0.042637 -0.005480 
-0.034498 0.044728 0.018099 
-0.034688 0.042637 0.018209 
-0.035353 0.048909 0.014077 
-0.035971 0.048909 0.012175 
-0.036351 0.044728 0.012395 
-0.035924 0.042637 0.014406 
-0.038698 0.040547 0.006563 
-0.038480 0.042637 0.006540 
-0.037843 0.036365 0.010586 
-0.037197 0.036365 0.012574 
-0.036760 0.040547 0.012528 
-0.037188 0.042637 0.010517 
-0.024333 0.044728 0.030604 
-0.024462 0.042637 0.030782 
-0.026750 0.048909 0.027277 
-0.028088 0.048909 0.025792 
-0.028346 0.044728 0.026147 
-0.027137 0.042637 0.027811 
-0.032862 0.040547 0.021774 
-0.032672 0.042637 0.021664 
-0.030445 0.036365 0.025101 
-0.029046 0.036365 0.026654 
-0.028665 0.040547 0.026435 
-0.029874 0.042637 0.024771 
-0.009960 0.044728 0.037893 
-0.010006 0.042637 0.038108 
-0.013522 0.048909 0.035837 
-0.015348 0.048909 0.035024 
-0.015439 0.044728 0.035454 
-0.013659 0.042637 0.036482 
-0.021344 0.040547 0.033296 
-0.021214 0.042637 0.033118 
-0.017782 0.036365 0.035352 
-0.015872 0.036365 0.036202 
-0.015614 0.040547 0.035847 
-0.017395 0.042637 0.034819 
0.006135 0.044728 0.038707 
0.006180 0.042637 0.038921 
0.002045 0.048909 0.038277 
0.000046 0.048909 0.038277 
0.000137 0.044728 0.038707 
0.002182 0.042637 0.038921 
-0.006135 0.040547 0.039136 
-0.006089 0.042637 0.038921 
-0.002045 0.036365 0.039566 
0.000046 0.036365 0.039566 
0.000137 0.040547 0.039136 
-0.001908 0.042637 0.038921 
0.021169 0.044728 0.032903 
0.021298 0.042637 0.033081 
0.017258 0.048909 0.034174 
0.015431 0.048909 0.034987 
0.015690 0.044728 0.035342 
0.017645 0.042637 0.034707 
0.010135 0.040547 0.038286 
0.010089 0.042637 0.038071 
0.014046 0.036365 0.037015 
0.015956 0.036365 0.036165 
0.015865 0.040547 0.035735 
0.013909 0.042637 0.036371 
0.032543 0.044728 0.021486 
0.032733 0.042637 0.021596 
0.029487 0.048909 0.024238 
0.028149 0.048909 0.025724 
0.028529 0.044728 0.025943 
0.030057 0.042637 0.024568 
0.024652 0.040547 0.030892 
0.024523 0.042637 0.030714 
0.027708 0.036365 0.028140 
0.029107 0.036365 0.026587 
0.028849 0.040547 0.026231 
0.027321 0.042637 0.027607 
0.038290 0.044728 0.006430 
0.038508 0.042637 0.006453 
0.036617 0.048909 0.010187 
0.035999 0.048909 0.012089 
0.036436 0.044728 0.012135 
0.037272 0.042637 0.010256 
0.034907 0.040547 0.018232 
0.034717 0.042637 0.018122 
0.036580 0.036365 0.014475 
0.037226 0.036365 0.012487 
0.036845 0.040547 0.012267 
0.036009 0.042637 0.014146 
0.037416 0.044728 -0.009661 
0.037625 0.042637 -0.009729 
0.037416 0.048909 -0.005549 
0.037625 0.048909 -0.003561 
0.038043 0.044728 -0.003696 
0.038043 0.042637 -0.005753 
0.039126 0.040547 0.002496 
0.038907 0.042637 0.002473 
0.039126 0.036365 -0.001616 
0.038907 0.036365 -0.003695 
0.038470 0.040547 -0.003741 
0.038470 0.042637 -0.001685 
0.030073 0.044728 -0.024006 
0.030236 0.042637 -0.024153 
0.031745 0.048909 -0.020250 
0.032745 0.048909 -0.018518 
0.033071 0.044728 -0.018812 
0.032235 0.042637 -0.020691 
0.036580 0.040547 -0.013596 
0.036371 0.042637 -0.013528 
0.034907 0.036365 -0.017353 
0.033862 0.036365 -0.019163 
0.033444 0.040547 -0.019027 
0.034280 0.042637 -0.017149 
0.017530 0.044728 -0.034124 
0.017619 0.042637 -0.034325 
0.020586 0.048909 -0.031373 
0.022203 0.048909 -0.030198 
0.022382 0.044728 -0.030599 
0.020854 0.042637 -0.031975 
0.027708 0.040547 -0.027261 
0.027545 0.042637 -0.027114 
0.024652 0.036365 -0.030012 
0.022961 0.036365 -0.031241 
0.022634 0.040547 -0.030947 
0.024162 0.042637 -0.029571 
0.001956 0.044728 -0.038266 
0.001956 0.042637 -0.038486 
0.005867 0.048909 -0.036995 
0.007822 0.048909 -0.036580 
0.007822 0.044728 -0.037019 
0.005867 0.042637 -0.037655 
0.014046 0.040547 -0.036136 
0.013957 0.042637 -0.035935 
0.010135 0.036365 -0.037406 
0.008090 0.036365 -0.037841 
0.007911 0.040547 -0.037440 
0.009867 0.042637 -0.036804 
-0.013094 0.026296 -0.033997 
-0.012687 0.023636 -0.033083 
-0.009818 0.031615 -0.036693 
-0.007773 0.031615 -0.037128 
-0.006959 0.026296 -0.035301 
-0.008597 0.023636 -0.033952 
-0.001638 0.020977 -0.034431 
-0.001638 0.023636 -0.035431 
-0.004914 0.015658 -0.031734 
-0.006552 0.015658 -0.031386 
-0.006552 0.020977 -0.033386 
-0.004914 0.023636 -0.034735 
-0.025968 0.026296 -0.025694 
-0.025225 0.023636 -0.025024 
-0.024072 0.031615 -0.029490 
-0.022381 0.031615 -0.030719 
-0.020894 0.026296 -0.029380 
-0.021842 0.023636 -0.027482 
-0.015680 0.020977 -0.030750 
-0.016087 0.023636 -0.031664 
-0.017576 0.015658 -0.026954 
-0.018930 0.015658 -0.025969 
-0.019744 0.020977 -0.027797 
-0.018796 0.023636 -0.029695 
-0.034353 0.026296 -0.012872 
-0.033401 0.023636 -0.012563 
-0.034165 0.031615 -0.017111 
-0.033119 0.031615 -0.018922 
-0.031217 0.026296 -0.018304 
-0.031311 0.023636 -0.016184 
-0.027010 0.020977 -0.021676 
-0.027753 0.023636 -0.022345 
-0.027198 0.015658 -0.017437 
-0.028035 0.015658 -0.015987 
-0.029522 0.020977 -0.017325 
-0.029428 0.023636 -0.019445 
-0.036797 0.026296 0.002251 
-0.035802 0.023636 0.002147 
-0.038350 0.031615 -0.001698 
-0.038131 0.031615 -0.003777 
-0.036142 0.026296 -0.003986 
-0.035365 0.023636 -0.002012 
-0.033670 0.020977 -0.008778 
-0.034622 0.023636 -0.009087 
-0.032118 0.015658 -0.004829 
-0.032293 0.015658 -0.003163 
-0.034195 0.020977 -0.003782 
-0.034972 0.023636 -0.005756 
-0.032879 0.026296 0.017061 
-0.032013 0.023636 0.016561 
-0.035904 0.031615 0.014085 
-0.036550 0.031615 0.012097 
-0.034817 0.026296 0.011097 
-0.033305 0.023636 0.012585 
-0.034509 0.020977 0.005714 
-0.035503 0.023636 0.005818 
-0.031484 0.015658 0.008690 
-0.030967 0.015658 0.010283 
-0.032956 0.020977 0.010492 
-0.034468 0.023636 0.009004 
-0.023276 0.026296 0.028997 
-0.022688 0.023636 0.028188 
-0.027250 0.031615 0.027509 
-0.028648 0.031615 0.025955 
-0.027473 0.026296 0.024337 
-0.025486 0.023636 0.025081 
-0.029380 0.020977 0.019294 
-0.030246 0.023636 0.019794 
-0.025406 0.015658 0.020783 
-0.024286 0.015658 0.022027 
-0.026018 0.020977 0.023027 
-0.028005 0.023636 0.022283 
-0.009648 0.026296 0.035996 
-0.009440 0.023636 0.035017 
-0.013884 0.031615 0.036252 
-0.015794 0.031615 0.035402 
-0.015378 0.026296 0.033445 
-0.013260 0.023636 0.033317 
-0.019171 0.020977 0.029614 
-0.019759 0.023636 0.030423 
-0.014936 0.015658 0.029358 
-0.013406 0.015658 0.030039 
-0.014582 0.020977 0.031657 
-0.016700 0.023636 0.031785 
0.005648 0.026296 0.036846 
0.005440 0.023636 0.035868 
0.001883 0.031615 0.038803 
-0.000208 0.031615 0.038803 
-0.000624 0.026296 0.036846 
0.001259 0.023636 0.035868 
-0.005648 0.020977 0.034889 
-0.005856 0.023636 0.035868 
-0.001883 0.015658 0.032932 
-0.000208 0.015658 0.032932 
-0.000624 0.020977 0.034889 
-0.002506 0.023636 0.035868 
0.019967 0.026296 0.031401 
0.019379 0.023636 0.030592 
0.017323 0.031615 0.034720 
0.015414 0.031615 0.035571 
0.014238 0.026296 0.033952 
0.015560 0.023636 0.032293 
0.008852 0.020977 0.034208 
0.009060 0.023636 0.035186 
0.011496 0.015658 0.030889 
0.013026 0.015658 0.030208 
0.013442 0.020977 0.032165 
0.012120 0.023636 0.033824 
0.030834 0.026296 0.020603 
0.029968 0.023636 0.020103 
0.029769 0.031615 0.024711 
0.028370 0.031615 0.026264 
0.026638 0.026296 0.025264 
0.027170 0.023636 0.023210 
0.021822 0.020977 0.027688 
0.022410 0.023636 0.028497 
0.022887 0.015658 0.023581 
0.024008 0.015658 0.022336 
0.025183 0.020977 0.023955 
0.024651 0.023636 0.026008 
0.036370 0.026296 0.006319 
0.035375 0.023636 0.006214 
0.037067 0.031615 0.010504 
0.036421 0.031615 0.012492 
0.034432 0.026296 0.012283 
0.034083 0.023636 0.010190 
0.031018 0.020977 0.016457 
0.031884 0.023636 0.016957 
0.030321 0.015658 0.012271 
0.030838 0.015658 0.010678 
0.032571 0.020977 0.011679 
0.032919 0.023636 0.013771 
0.035616 0.026296 -0.008983 
0.034665 0.023636 -0.008673 
0.037956 0.031615 -0.005443 
0.038175 0.031615 -0.003363 
0.036272 0.026296 -0.002745 
0.035102 0.023636 -0.004515 
0.034851 0.020977 0.002456 
0.035846 0.023636 0.002560 
0.032511 0.015658 -0.001084 
0.032336 0.015658 -0.002750 
0.034326 0.020977 -0.002541 
0.035496 0.023636 -0.000771 
0.028705 0.026296 -0.022654 
0.027961 0.023636 -0.021985 
0.032282 0.031615 -0.020372 
0.033327 0.031615 -0.018562 
0.031841 0.026296 -0.017223 
0.030052 0.023636 -0.018364 
0.032658 0.020977 -0.011894 
0.033609 0.023636 -0.012203 
0.029081 0.015658 -0.014176 
0.028243 0.015658 -0.015626 
0.030146 0.020977 -0.016245 
0.031935 0.023636 -0.015103 
0.016830 0.026296 -0.032333 
0.016423 0.023636 -0.031419 
0.021026 0.031615 -0.031703 
0.022717 0.031615 -0.030474 
0.021904 0.026296 -0.028647 
0.019806 0.023636 -0.028962 
0.024818 0.020977 -0.024111 
0.025561 0.023636 -0.024780 
0.020622 0.015658 -0.024741 
0.019267 0.015658 -0.025725 
0.020754 0.020977 -0.027064 
0.022852 0.023636 -0.026749 
0.002045 0.026296 -0.036345 
0.002045 0.023636 -0.035345 
0.006135 0.031615 -0.037476 
0.008180 0.031615 -0.037042 
0.008180 0.026296 -0.035041 
0.006135 0.023636 -0.034475 
0.012687 0.020977 -0.032083 
0.013094 0.023636 -0.032996 
0.008597 0.015658 -0.030951 
0.006959 0.015658 -0.031300 
0.007773 0.020977 -0.033127 
0.009818 0.023636 -0.033693 
-0.009734 0.008692 -0.025449 
-0.009156 0.007257 -0.024152 
-0.007613 0.011563 -0.028740 
-0.005975 0.011563 -0.029088 
-0.004819 0.008692 -0.026494 
-0.005880 0.007257 -0.024849 
-0.001060 0.005821 -0.024453 
-0.001060 0.007257 -0.025873 
-0.003181 0.002951 -0.021162 
-0.004242 0.002951 -0.020937 
-0.004242 0.005821 -0.023777 
-0.003181 0.007257 -0.025422 
-0.019422 0.008692 -0.019252 
-0.018367 0.007257 -0.018302 
-0.018823 0.011563 -0.023121 
-0.017468 0.011563 -0.024106 
-0.015358 0.008692 -0.022205 
-0.015657 0.007257 -0.020271 
-0.011094 0.005821 -0.021869 
-0.011671 0.007257 -0.023167 
-0.011693 0.002951 -0.018000 
-0.012570 0.002951 -0.017363 
-0.013725 0.005821 -0.019958 
-0.013425 0.007257 -0.021892 
-0.025752 0.008692 -0.009650 
-0.024402 0.007257 -0.009211 
-0.026779 0.011563 -0.013428 
-0.025942 0.011563 -0.014878 
-0.023241 0.008692 -0.014001 
-0.022727 0.007257 -0.012112 
-0.019208 0.005821 -0.015429 
-0.020264 0.007257 -0.016379 
-0.018182 0.002951 -0.011650 
-0.018724 0.002951 -0.010711 
-0.020835 0.005821 -0.012612 
-0.021348 0.007257 -0.014501 
-0.027630 0.008692 0.001697 
-0.026218 0.007257 0.001548 
-0.030104 0.011563 -0.001337 
-0.029929 0.011563 -0.003003 
-0.027105 0.008692 -0.003300 
-0.025868 0.007257 -0.001783 
-0.024002 0.005821 -0.006244 
-0.025353 0.007257 -0.006683 
-0.021528 0.002951 -0.003210 
-0.021641 0.002951 -0.002132 
-0.024342 0.005821 -0.003009 
-0.025579 0.007257 -0.004526 
-0.024730 0.008692 0.012826 
-0.023500 0.007257 0.012116 
-0.028224 0.011563 0.011061 
-0.028742 0.011563 0.009468 
-0.026282 0.008692 0.008048 
-0.024535 0.007257 0.008931 
-0.024645 0.005821 0.004096 
-0.026058 0.007257 0.004245 
-0.021151 0.002951 0.005862 
-0.020816 0.002951 0.006893 
-0.023640 0.005821 0.007190 
-0.025388 0.007257 0.006307 
-0.017554 0.008692 0.021814 
-0.016719 0.007257 0.020665 
-0.021464 0.011563 0.021623 
-0.022585 0.011563 0.020378 
-0.020916 0.008692 0.018080 
-0.018960 0.007257 0.018176 
-0.021027 0.005821 0.013805 
-0.022257 0.007257 0.014515 
-0.017117 0.002951 0.013996 
-0.016392 0.002951 0.014802 
-0.018851 0.005821 0.016222 
-0.020806 0.007257 0.016126 
-0.007343 0.008692 0.027106 
-0.007047 0.007257 0.025717 
-0.010993 0.011563 0.028522 
-0.012523 0.011563 0.027840 
-0.011932 0.008692 0.025062 
-0.010107 0.007257 0.024355 
-0.013774 0.005821 0.021202 
-0.014608 0.007257 0.022351 
-0.010123 0.002951 0.019786 
-0.009133 0.002951 0.020227 
-0.010802 0.005821 0.022525 
-0.012627 0.007257 0.023232 
0.004138 0.008692 0.027787 
0.003843 0.007257 0.026398 
0.001379 0.011563 0.030565 
-0.000295 0.011563 0.030565 
-0.000886 0.008692 0.027787 
0.000494 0.007257 0.026398 
-0.004138 0.005821 0.025009 
-0.004433 0.007257 0.026398 
-0.001379 0.002951 0.022231 
-0.000295 0.002951 0.022231 
-0.000886 0.005821 0.025009 
-0.002265 0.007257 0.026398 
0.014904 0.008692 0.023740 
0.014069 0.007257 0.022591 
0.013513 0.011563 0.027399 
0.011983 0.011563 0.028081 
0.010314 0.008692 0.025783 
0.011009 0.007257 0.023953 
0.006213 0.005821 0.024568 
0.006508 0.007257 0.025957 
0.007603 0.002951 0.020908 
0.008594 0.002951 0.020467 
0.009184 0.005821 0.023245 
0.008489 0.007257 0.025075 
0.023092 0.008692 0.015663 
0.021862 0.007257 0.014953 
0.023310 0.011563 0.019572 
0.022190 0.011563 0.020817 
0.019730 0.008692 0.019397 
0.019621 0.007257 0.017442 
0.015489 0.005821 0.019955 
0.016324 0.007257 0.021104 
0.015271 0.002951 0.016046 
0.015996 0.002951 0.015240 
0.017666 0.005821 0.017538 
0.017775 0.007257 0.019493 
0.027287 0.008692 0.004955 
0.025875 0.007257 0.004806 
0.029077 0.011563 0.008437 
0.028560 0.011563 0.010030 
0.025735 0.008692 0.009733 
0.024840 0.007257 0.007992 
0.022088 0.005821 0.011968 
0.023318 0.007257 0.012678 
0.020298 0.002951 0.008486 
0.020633 0.002951 0.007454 
0.023093 0.005821 0.008874 
0.023988 0.007257 0.010616 
0.026765 0.008692 -0.006534 
0.025414 0.007257 -0.006095 
0.029816 0.011563 -0.004081 
0.029991 0.011563 -0.002416 
0.027290 0.008692 -0.001538 
0.025764 0.007257 -0.002765 
0.024867 0.005821 0.001987 
0.026279 0.007257 0.002136 
0.021816 0.002951 -0.000466 
0.021703 0.002951 -0.001544 
0.024527 0.005821 -0.001248 
0.026053 0.007257 -0.000021 
0.021614 0.008692 -0.016818 
0.020559 0.007257 -0.015867 
0.025399 0.011563 -0.015817 
0.026237 0.011563 -0.014367 
0.024126 0.008692 -0.012467 
0.022234 0.007257 -0.012967 
0.023347 0.005821 -0.008261 
0.024697 0.007257 -0.008700 
0.019561 0.002951 -0.009261 
0.019019 0.002951 -0.010200 
0.021720 0.005821 -0.011078 
0.023613 0.007257 -0.010578 
0.012726 0.008692 -0.024117 
0.012149 0.007257 -0.022820 
0.016591 0.011563 -0.024743 
0.017946 0.011563 -0.023758 
0.016791 0.008692 -0.021164 
0.014858 0.007257 -0.020851 
0.017789 0.005821 -0.017005 
0.018845 0.007257 -0.017955 
0.013924 0.002951 -0.016379 
0.013047 0.002951 -0.017016 
0.015158 0.005821 -0.018916 
0.017090 0.007257 -0.019229 
0.001638 0.008692 -0.027170 
0.001638 0.007257 -0.025750 
0.004914 0.011563 -0.029314 
0.006552 0.011563 -0.028966 
0.006552 0.008692 -0.026126 
0.004914 0.007257 -0.025054 
0.009156 0.005821 -0.022732 
0.009734 0.007257 -0.024029 
0.005880 0.002951 -0.020588 
0.004819 0.002951 -0.020814 
0.005975 0.005821 -0.023408 
0.007613 0.007257 -0.024480 
-0.002121 0.000966 -0.005628 
-0.002121 0.000219 -0.008235 
-0.001591 0.000219 -0.008347 
-0.000530 0.000966 -0.005966 
-0.004405 0.000966 -0.004240 
-0.005466 0.000219 -0.006622 
-0.005027 0.000219 -0.006941 
-0.003090 0.000966 -0.005196 
-0.005928 0.000966 -0.002044 
-0.007866 0.000219 -0.003788 
-0.007595 0.000219 -0.004258 
-0.005115 0.000966 -0.003452 
-0.006426 0.000966 0.000582 
-0.008905 0.000219 -0.000224 
-0.008849 0.000219 -0.000763 
-0.006256 0.000966 -0.001035 
-0.005812 0.000966 0.003183 
-0.008405 0.000219 0.003456 
-0.008573 0.000219 0.002940 
-0.006315 0.000966 0.001637 
-0.004194 0.000966 0.005310 
-0.006452 0.000219 0.006614 
-0.006815 0.000219 0.006211 
-0.005282 0.000966 0.004102 
-0.001850 0.000966 0.006595 
-0.003383 0.000219 0.008704 
-0.003878 0.000219 0.008484 
-0.003336 0.000966 0.005934 
0.000813 0.000966 0.006815 
0.000271 0.000219 0.009366 
-0.000271 0.000219 0.009366 
-0.000813 0.000966 0.006815 
0.003336 0.000966 0.005934 
0.003878 0.000219 0.008484 
0.003383 0.000219 0.008704 
0.001850 0.000966 0.006595 
0.005282 0.000966 0.004102 
0.006815 0.000219 0.006211 
0.006452 0.000219 0.006614 
0.004194 0.000966 0.005310 
0.006315 0.000966 0.001637 
0.008573 0.000219 0.002940 
0.008405 0.000219 0.003456 
0.005812 0.000966 0.003183 
0.006256 0.000966 -0.001035 
0.008849 0.000219 -0.000763 
0.008905 0.000219 -0.000224 
0.006426 0.000966 0.000582 
0.005115 0.000966 -0.003452 
0.007595 0.000219 -0.004258 
0.007866 0.000219 -0.003788 
0.005928 0.000966 -0.002044 
0.003090 0.000966 -0.005196 
0.005027 0.000219 -0.006941 
0.005466 0.000219 -0.006622 
0.004405 0.000966 -0.004240 
0.000530 0.000966 -0.005966 
0.001591 0.000219 -0.008347 
0.002121 0.000219 -0.008235 
0.002121 0.000966 -0.005628 
-0.004182 0.071697 -0.009980 
-0.002509 0.071041 -0.008280 
-0.002091 0.071041 -0.008368 
-0.002927 0.071697 -0.010247 
-0.000836 0.072352 -0.012747 
-0.000836 0.072024 -0.011719 
-0.002509 0.073008 -0.014448 
-0.003345 0.073008 -0.014270 
-0.003345 0.072352 -0.012214 
-0.002509 0.072024 -0.011364 
-0.008058 0.071697 -0.007379 
-0.005839 0.071041 -0.006505 
-0.005493 0.071041 -0.006757 
-0.007021 0.071697 -0.008132 
-0.006128 0.072352 -0.011267 
-0.005710 0.072024 -0.010328 
-0.008347 0.073008 -0.012140 
-0.009039 0.073008 -0.011638 
-0.008203 0.072352 -0.009759 
-0.007093 0.072024 -0.009323 
-0.010542 0.071697 -0.003425 
-0.008159 0.071041 -0.003530 
-0.007945 0.071041 -0.003900 
-0.009900 0.071697 -0.004536 
-0.010360 0.072352 -0.007763 
-0.009596 0.072024 -0.007075 
-0.012743 0.073008 -0.007658 
-0.013170 0.073008 -0.006917 
-0.011642 0.072352 -0.005541 
-0.010451 0.072024 -0.005594 
-0.011202 0.071697 0.001197 
-0.009068 0.071041 0.000131 
-0.009023 0.071041 -0.000294 
-0.011068 0.071697 -0.000079 
-0.012800 0.072352 -0.002840 
-0.011822 0.072024 -0.002522 
-0.014934 0.073008 -0.001775 
-0.015024 0.073008 -0.000924 
-0.013068 0.072352 -0.000289 
-0.012001 0.072024 -0.000822 
-0.009926 0.071697 0.005688 
-0.008409 0.071041 0.003846 
-0.008541 0.071041 0.003440 
-0.010322 0.071697 0.004468 
-0.013028 0.072352 0.002650 
-0.012005 0.072024 0.002542 
-0.014544 0.073008 0.004491 
-0.014280 0.073008 0.005304 
-0.012235 0.072352 0.005089 
-0.011477 0.072024 0.004169 
-0.006933 0.071697 0.009271 
-0.006297 0.071041 0.006972 
-0.006583 0.071041 0.006655 
-0.007791 0.071697 0.008318 
-0.011002 0.072352 0.007758 
-0.010112 0.072024 0.007244 
-0.011639 0.073008 0.010056 
-0.011067 0.073008 0.010692 
-0.009286 0.072352 0.009664 
-0.008968 0.072024 0.008514 
-0.002742 0.071697 0.011328 
-0.003095 0.071041 0.008969 
-0.003486 0.071041 0.008795 
-0.003913 0.071697 0.010806 
-0.007075 0.072352 0.011600 
-0.006470 0.072024 0.010768 
-0.006721 0.073008 0.013959 
-0.005940 0.073008 0.014307 
-0.004731 0.072352 0.012643 
-0.004908 0.072024 0.011464 
0.001924 0.071697 0.011501 
0.000641 0.071041 0.009490 
0.000214 0.071041 0.009490 
0.000641 0.071697 0.011501 
-0.001924 0.072352 0.013513 
-0.001710 0.072024 0.012507 
-0.000641 0.073008 0.015524 
0.000214 0.073008 0.015524 
0.000641 0.072352 0.013513 
0.000000 0.072024 0.012507 
0.006257 0.071697 0.009763 
0.004267 0.071041 0.008447 
0.003876 0.071041 0.008621 
0.005085 0.071697 0.010284 
0.003560 0.072352 0.013165 
0.003346 0.072024 0.012159 
0.005549 0.073008 0.014481 
0.006331 0.073008 0.014133 
0.005903 0.072352 0.012122 
0.004908 0.072024 0.011464 
0.009508 0.071697 0.006412 
0.007155 0.071041 0.006019 
0.006869 0.071041 0.006337 
0.008650 0.071697 0.007365 
0.008428 0.072352 0.010617 
0.007824 0.072024 0.009785 
0.010781 0.073008 0.011010 
0.011353 0.073008 0.010374 
0.010144 0.072352 0.008711 
