0.000000 0.069344 0.000440 
-0.000000 0.070714 -0.007785 
-0.003345 0.070714 -0.007074 
-0.006112 0.070714 -0.005064 
-0.007822 0.070714 -0.002102 
-0.008180 0.070714 0.001299 
-0.007123 0.070714 0.004552 
-0.004834 0.070714 0.007094 
-0.001710 0.070714 0.008485 
0.001710 0.070714 0.008485 
0.004834 0.070714 0.007094 
0.007123 0.070714 0.004552 
0.008180 0.070714 0.001299 
0.007822 0.070714 -0.002102 
0.006112 0.070714 -0.005064 
0.003345 0.070714 -0.007074 
-0.012224 0.065563 -0.027016 
-0.006690 0.073335 -0.014587 
-0.000000 0.073335 -0.016009 
-0.000000 0.065563 -0.029614 
-0.022335 0.065563 -0.019670 
-0.012224 0.073335 -0.010567 
-0.028583 0.065563 -0.008847 
-0.015644 0.073335 -0.004643 
-0.029889 0.065563 0.003581 
-0.016359 0.073335 0.002159 
-0.026028 0.065563 0.015467 
-0.014245 0.073335 0.008664 
-0.017665 0.065563 0.024754 
-0.009669 0.073335 0.013747 
-0.006249 0.065563 0.029837 
-0.003420 0.073335 0.016530 
0.006249 0.065563 0.029837 
0.003420 0.073335 0.016530 
0.017665 0.065563 0.024754 
0.009669 0.073335 0.013747 
0.026028 0.065563 0.015467 
0.014245 0.073335 0.008664 
0.029889 0.065563 0.003581 
0.016359 0.073335 0.002159 
0.028583 0.065563 -0.008847 
0.015644 0.073335 -0.004643 
0.022335 0.065563 -0.019670 
0.012224 0.073335 -0.010567 
0.012224 0.065563 -0.027016 
0.006690 0.073335 -0.014587 
-0.015644 0.050999 -0.034697 
-0.000000 0.050999 -0.038023 
-0.028583 0.050999 -0.025297 
-0.036580 0.050999 -0.011446 
-0.038252 0.050999 0.004460 
-0.033309 0.050999 0.019671 
-0.022608 0.050999 0.031557 
-0.007997 0.050999 0.038062 
0.007997 0.050999 0.038062 
0.022608 0.050999 0.031557 
0.033309 0.050999 0.019671 
0.038252 0.050999 0.004460 
0.036580 0.050999 -0.011446 
0.028583 0.050999 -0.025297 
0.015644 0.050999 -0.034697 
-0.016359 0.034275 -0.036303 
-0.000000 0.034275 -0.039780 
-0.029889 0.034275 -0.026473 
-0.038252 0.034275 -0.011989 
-0.040000 0.034275 0.004644 
-0.034832 0.034275 0.020550 
-0.023641 0.034275 0.032979 
-0.008362 0.034275 0.039781 
0.008362 0.034275 0.039781 
0.023641 0.034275 0.032979 
0.034832 0.034275 0.020550 
0.040000 0.034275 0.004644 
0.038252 0.034275 -0.011989 
0.029889 0.034275 -0.026473 
0.016359 0.034275 -0.036303 
-0.013104 0.012998 -0.028993 
-0.000000 0.012998 -0.031778 
-0.023943 0.012998 -0.021118 
-0.030641 0.012998 -0.009516 
-0.032042 0.012998 0.003808 
-0.027902 0.012998 0.016549 
-0.018937 0.012998 0.026505 
-0.006699 0.012998 0.031954 
0.006699 0.012998 0.031954 
0.018937 0.012998 0.026505 
0.027902 0.012998 0.016549 
0.032042 0.012998 0.003808 
0.030641 0.012998 -0.009516 
0.023943 0.012998 -0.021118 
0.013104 0.012998 -0.028993 
-0.008484 0.001515 -0.018615 
-0.000000 0.001515 -0.020418 
-0.015501 0.001515 -0.013517 
-0.019837 0.001515 -0.006006 
-0.020744 0.001515 0.002620 
-0.018064 0.001515 0.010869 
-0.012260 0.001515 0.017314 
-0.004337 0.001515 0.020842 
0.004337 0.001515 0.020842 
0.012260 0.001515 0.017314 
0.018064 0.001515 0.010869 
0.020744 0.001515 0.002620 
0.019837 0.001515 -0.006006 
0.015501 0.001515 -0.013517 
0.008484 0.001515 -0.018615 
0.000000 0.002833 0.000440 
-0.004242 -0.000155 -0.009088 
-0.000000 -0.000155 -0.009989 
-0.007750 -0.000155 -0.006539 
-0.009919 -0.000155 -0.002783 
-0.010372 -0.000155 0.001530 
-0.009032 -0.000155 0.005654 
-0.006130 -0.000155 0.008877 
-0.002168 -0.000155 0.010641 
0.002168 -0.000155 0.010641 
0.006130 -0.000155 0.008877 
0.009032 -0.000155 0.005654 
0.010372 -0.000155 0.001530 
0.009919 -0.000155 -0.002783 
0.007750 -0.000155 -0.006539 
0.004242 -0.000155 -0.009088 
0.001172 0.068583 0.000430 
0.000529 0.068755 -0.000724 
0.001351 0.071824 -0.001069 
0.001995 0.071651 0.000085 
-0.000758 0.069100 -0.000724 
0.000064 0.072169 -0.001069 
-0.001402 0.069272 0.000430 
-0.000580 0.072341 0.000085 
-0.000758 0.069100 0.001584 
0.000064 0.072169 0.001239 
0.000529 0.068755 0.001584 
0.001351 0.071824 0.001239 
0.002173 0.074893 -0.001412 
0.002817 0.074720 -0.000258 
0.000886 0.075238 -0.001412 
0.000243 0.075410 -0.000258 
0.000886 0.075238 0.000896 
0.002173 0.074893 0.000896 
0.002996 0.077962 -0.001526 
0.003639 0.077789 -0.000372 
0.001709 0.078307 -0.001526 
0.001065 0.078479 -0.000372 
0.001709 0.078307 0.000782 
0.002996 0.077962 0.000782 
