0.015281 0.000048 0.002925 
0.014061 0.005379 0.002925 
0.010549 0.010066 0.002925 
0.005168 0.013546 0.002925 
-0.001433 0.015397 0.002925 
-0.008457 0.015397 0.002925 
-0.015058 0.013546 0.002925 
-0.020439 0.010066 0.002925 
-0.023951 0.005379 0.002925 
-0.025171 0.000048 0.002925 
-0.023951 -0.005283 0.002925 
-0.020439 -0.009971 0.002925 
-0.015058 -0.013451 0.002925 
-0.008457 -0.015302 0.002925 
-0.001433 -0.015302 0.002925 
0.005168 -0.013451 0.002925 
0.010549 -0.009971 0.002925 
0.014061 -0.005283 0.002925 
0.012571 0.000048 0.038233 
0.011515 0.004664 0.038233 
0.008474 0.008724 0.038234 
0.003814 0.011739 0.038234 
-0.001903 0.013343 0.038234 
-0.007987 0.013343 0.038234 
-0.013704 0.011739 0.038234 
-0.018364 0.008724 0.038234 
-0.021405 0.004664 0.038233 
-0.022461 0.000048 0.038233 
-0.021405 -0.004569 0.038233 
-0.018364 -0.008629 0.038234 
-0.013704 -0.011643 0.038234 
-0.007987 -0.013247 0.038234 
-0.001903 -0.013247 0.038234 
0.003814 -0.011643 0.038234 
0.008474 -0.008629 0.038234 
0.011515 -0.004569 0.038233 
0.011732 0.000048 0.070303 
0.010727 0.004431 0.070303 
0.007831 0.008286 0.070303 
0.003394 0.011147 0.070304 
-0.017720 0.008286 0.070303 
-0.020617 0.004431 0.070303 
-0.021622 0.000048 0.070303 
-0.020617 -0.004336 0.070303 
-0.017720 -0.008191 0.070303 
-0.013284 -0.011052 0.070304 
0.007831 -0.008191 0.070303 
0.010727 -0.004336 0.070303 
-0.001981 0.012637 0.086337 
-0.013479 0.011119 0.086337 
-0.007909 -0.012542 0.086337 
0.003589 -0.011023 0.086337 
-0.008025 0.012637 0.102467 
-0.001865 -0.012542 0.102467 
0.013615 0.000048 0.133500 
0.012496 0.004398 0.133500 
0.009273 0.008224 0.133500 
0.004335 0.011063 0.133500 
-0.001722 0.012573 0.133500 
-0.008168 0.012573 0.133500 
-0.014225 0.011063 0.133500 
-0.019163 0.008224 0.133500 
-0.022385 0.004398 0.133500 
-0.023505 0.000048 0.133500 
-0.022385 -0.004303 0.133500 
-0.019163 -0.008129 0.133500 
-0.014225 -0.010967 0.133500 
-0.008168 -0.012477 0.133500 
-0.001722 -0.012477 0.133500 
0.004335 -0.010967 0.133500 
0.009273 -0.008129 0.133500 
0.012496 -0.004303 0.133500 
-0.017891 0.007184 0.160325 
-0.020827 0.003846 0.160325 
-0.021846 0.000048 0.160325 
-0.020827 -0.003750 0.160325 
-0.017891 -0.007089 0.160325 
0.011830 0.000048 0.173737 
0.010890 0.003537 0.173737 
0.008183 0.006604 0.173737 
0.004035 0.008881 0.173737 
-0.002238 0.010092 0.173737 
-0.007652 0.010092 0.173737 
-0.012120 0.008881 0.173737 
-0.016267 0.006604 0.173737 
-0.019915 0.000048 0.173737 
-0.018975 -0.003441 0.173737 
-0.016267 -0.006509 0.173737 
-0.012120 -0.008785 0.173737 
-0.007652 -0.009996 0.173737 
-0.002238 -0.009996 0.173737 
0.004035 -0.008785 0.173737 
0.008183 -0.006509 0.173737 
0.010890 -0.003441 0.173737 
0.011134 0.000048 0.187149 
0.010691 0.003401 0.187149 
0.009784 0.006350 0.187149 
0.005876 0.006893 0.187149 
-0.007495 0.007341 0.187149 
-0.016793 0.006350 0.187149 
-0.017701 0.003401 0.187149 
-0.018144 0.000048 0.187149 
-0.017701 -0.003306 0.187149 
-0.016793 -0.006255 0.187149 
-0.011669 -0.006798 0.187149 
0.009784 -0.006255 0.187149 
0.010691 -0.003306 0.187149 
0.007335 0.000048 0.200562 
0.006903 0.003401 0.200562 
0.006019 0.006350 0.200562 
-0.015908 0.006350 0.200562 
-0.016793 0.003401 0.200562 
-0.017225 0.000048 0.200562 
-0.016793 -0.003306 0.200562 
-0.015908 -0.006255 0.200562 
0.006019 -0.006255 0.200562 
0.006903 -0.003306 0.200562 
0.007302 0.000048 0.213974 
0.006871 0.003401 0.213974 
0.005989 0.006350 0.213974 
-0.015879 0.006350 0.213974 
-0.016761 0.003401 0.213974 
-0.017192 0.000048 0.213974 
-0.016761 -0.003306 0.213974 
-0.015879 -0.006255 0.213974 
0.005989 -0.006255 0.213974 
0.006871 -0.003306 0.213974 
0.009109 0.000048 0.227386 
0.008678 0.003401 0.227386 
0.007796 0.006350 0.227386 
-0.007423 0.007341 0.227386 
-0.018252 0.006350 0.227386 
-0.019134 0.003401 0.227386 
-0.019565 0.000048 0.227386 
-0.019134 -0.003306 0.227386 
-0.018252 -0.006255 0.227386 
-0.002466 -0.007245 0.227386 
0.007796 -0.006255 0.227386 
0.008678 -0.003306 0.227386 
0.009452 0.000048 0.240798 
0.009009 0.005509 0.240798 
-0.007423 0.006367 0.241623 
-0.019650 0.005509 0.240651 
-0.020050 -0.002858 0.240651 
-0.019650 -0.005414 0.240651 
-0.002466 -0.006272 0.241623 
0.009009 -0.005414 0.240798 
0.014963 0.005632 0.003867 
0.016241 0.000048 0.003867 
0.011285 0.010542 0.003867 
0.005648 0.014187 0.003867 
-0.001266 0.016126 0.003867 
-0.008624 0.016126 0.003867 
-0.015538 0.014187 0.003867 
-0.021174 0.010542 0.003867 
-0.024853 0.005632 0.003867 
-0.026131 0.000048 0.003867 
-0.024853 -0.005536 0.003867 
-0.021174 -0.010447 0.003867 
-0.015538 -0.014091 0.003867 
-0.008624 -0.016031 0.003867 
-0.001266 -0.016031 0.003867 
0.005648 -0.014091 0.003867 
0.011285 -0.010447 0.003867 
0.014963 -0.005536 0.003867 
-0.019743 -0.011337 0.184716 
-0.005691 -0.011116 0.184422 
0.003816 -0.011116 0.184422 
0.013448 -0.011117 0.184415 
-0.021090 -0.003761 0.184422 
-0.005691 -0.003761 0.184422 
0.003816 -0.003761 0.184422 
0.014798 -0.003761 0.184379 
-0.021248 0.003786 0.184521 
-0.005691 0.003777 0.184422 
0.003816 0.003777 0.184422 
0.014798 0.003777 0.184379 
-0.019900 0.011147 0.184529 
-0.005691 0.011132 0.184422 
0.003816 0.011132 0.184422 
0.013449 0.011133 0.184415 
-0.028147 -0.011565 0.239374 
-0.004935 -0.011568 0.241597 
0.015784 -0.011789 0.240095 
0.028001 -0.011791 0.237421 
-0.029638 -0.005354 0.239374 
-0.007407 -0.006811 0.242397 
0.009904 -0.006811 0.241559 
0.029645 -0.002728 0.237606 
-0.029638 0.005370 0.239374 
-0.007407 0.006826 0.242397 
0.009904 0.006826 0.241559 
0.029645 0.002744 0.237606 
-0.028147 0.011582 0.239374 
-0.004935 0.011584 0.241597 
0.015624 0.011583 0.240315 
0.028047 0.011583 0.237606 
-0.028136 -0.013792 0.205859 
-0.009199 -0.013974 0.204716 
0.006548 -0.013974 0.203501 
0.019540 -0.013791 0.201732 
0.020752 -0.003951 0.201636 
0.020752 0.003968 0.201636 
0.020198 0.013990 0.201693 
0.006548 0.013990 0.203501 
-0.009199 0.013990 0.204716 
-0.028136 0.013808 0.205859 
-0.029638 0.005370 0.201798 
-0.029638 -0.005354 0.201798 
-0.031314 -0.016077 0.217774 
-0.009397 -0.016077 0.217774 
0.009940 -0.016077 0.217858 
0.024054 -0.015894 0.216049 
0.025431 -0.003951 0.215973 
0.025431 0.003968 0.215973 
0.023832 0.016093 0.216075 
0.009940 0.016093 0.217858 
-0.009397 0.016093 0.217774 
-0.031633 0.015962 0.217774 
-0.071460 0.003365 0.217884 
-0.071460 -0.003349 0.217884 
-0.030517 -0.015944 0.222833 
-0.009397 -0.016077 0.223512 
0.009720 -0.016077 0.222078 
0.026594 -0.016056 0.219049 
0.028242 -0.004545 0.218848 
0.028242 0.004561 0.218848 
0.026707 0.016051 0.219119 
0.009720 0.016093 0.222078 
-0.009397 0.016093 0.223512 
-0.030201 0.016093 0.222839 
-0.071395 0.003474 0.226238 
-0.071395 -0.003458 0.226238 
0.044571 -0.000512 0.229120 
0.045192 -0.013695 0.229813 
0.040961 -0.015895 0.215618 
0.035051 -0.005899 0.217067 
0.045247 0.013496 0.230001 
0.044571 0.000528 0.229120 
0.035051 0.005914 0.217067 
0.041065 0.016063 0.215791 
0.055992 -0.001981 0.217724 
0.055886 -0.013706 0.217569 
0.050012 -0.015894 0.208521 
0.050070 -0.004849 0.208617 
0.055992 0.013496 0.217732 
0.055929 0.001919 0.217627 
0.050012 0.005004 0.208526 
0.050111 0.016053 0.208674 
0.063507 -0.002432 0.203541 
0.063371 -0.014188 0.203427 
0.058406 -0.015894 0.198866 
0.058485 -0.004161 0.198940 
0.063507 0.013970 0.203551 
0.063425 0.002368 0.203466 
0.058406 0.004315 0.198868 
0.058537 0.016043 0.198987 
0.068626 -0.002756 0.191634 
0.068472 -0.014202 0.191575 
0.064028 -0.015894 0.189396 
0.064125 -0.003891 0.189444 
0.068626 0.013970 0.191651 
0.068530 0.002689 0.191587 
0.064028 0.004044 0.189397 
0.064183 0.016028 0.189472 
0.072365 -0.003192 0.180550 
0.072126 -0.014361 0.180744 
0.070071 -0.015873 0.180936 
0.070220 -0.003515 0.180911 
0.072365 0.014108 0.180550 
0.072245 0.003122 0.180570 
0.070071 0.003671 0.180936 
0.070151 0.016013 0.181105 
-0.030556 -0.010919 0.234261 
-0.030783 -0.005354 0.236653 
-0.030783 0.005370 0.236653 
-0.030556 0.010935 0.234261 
-0.032052 0.014363 0.222833 
-0.033229 0.014363 0.217774 
-0.030702 0.012431 0.209450 
-0.031471 0.005370 0.205302 
-0.031471 -0.005354 0.205302 
-0.030702 -0.012416 0.209450 
-0.033229 -0.014347 0.217774 
-0.032052 -0.014347 0.222833 
-0.034722 -0.010238 0.231129 
-0.034686 -0.004414 0.233201 
-0.034686 0.004430 0.233201 
-0.034722 0.010254 0.231129 
-0.034869 0.011847 0.222524 
-0.034941 0.011847 0.218336 
-0.035058 0.010254 0.211509 
-0.035116 0.004430 0.208089 
-0.035116 -0.004414 0.208089 
-0.035058 -0.010238 0.211509 
-0.034941 -0.011831 0.218336 
-0.034869 -0.011831 0.222524 
-0.041356 -0.009808 0.229870 
-0.041322 -0.003364 0.232592 
-0.041322 0.003380 0.232592 
-0.041356 0.009824 0.229870 
-0.041497 0.011350 0.224669 
-0.041565 0.011350 0.217996 
-0.041678 0.009824 0.212770 
-0.041734 0.003274 0.209493 
-0.041734 -0.003258 0.209493 
-0.041678 -0.009808 0.212770 
-0.041565 -0.011334 0.217996 
-0.041497 -0.011334 0.224669 
-0.047229 -0.009923 0.229998 
-0.047191 -0.003729 0.233595 
-0.047191 0.003745 0.233595 
-0.047229 0.009938 0.229998 
-0.047385 0.012577 0.225155 
-0.047461 0.012577 0.217760 
-0.047585 0.010063 0.212349 
-0.047647 0.003627 0.208815 
-0.047647 -0.003612 0.208815 
-0.047585 -0.010047 0.212349 
-0.047461 -0.012561 0.217760 
-0.047385 -0.012561 0.225155 
-0.053278 -0.012278 0.232155 
-0.053232 -0.004615 0.236606 
-0.053232 0.004631 0.236606 
-0.053278 0.012294 0.232155 
-0.053472 0.015558 0.226164 
-0.053566 0.015558 0.217015 
-0.053720 0.012449 0.210320 
-0.053797 0.004486 0.205948 
-0.053797 -0.004470 0.205948 
-0.053719 -0.012432 0.210320 
-0.053566 -0.015542 0.217015 
-0.053472 -0.015542 0.226164 
-0.054894 -0.012869 0.232772 
-0.054845 -0.004838 0.237437 
-0.054845 0.004853 0.237437 
-0.054894 0.012885 0.232772 
-0.055096 0.016306 0.226492 
-0.055193 0.016305 0.216904 
-0.055353 0.013045 0.209888 
-0.055432 0.004701 0.205307 
-0.055432 -0.004685 0.205307 
-0.055353 -0.013029 0.209888 
-0.055193 -0.016289 0.216904 
-0.055096 -0.016289 0.226492 
-0.070052 -0.012844 0.233042 
-0.069865 -0.004860 0.237798 
-0.069865 0.004876 0.237798 
-0.069914 0.012944 0.233112 
-0.070118 0.016381 0.226803 
-0.070217 0.016381 0.217170 
-0.070379 0.013107 0.210120 
-0.070460 0.004723 0.205517 
-0.070460 -0.004707 0.205517 
-0.070379 -0.013091 0.210120 
-0.070217 -0.016366 0.217170 
-0.070254 -0.016259 0.226774 
-0.071248 -0.009176 0.229925 
-0.071213 -0.003448 0.233251 
-0.071213 0.003464 0.233251 
-0.071248 0.009192 0.229925 
-0.071393 0.011632 0.225446 
-0.071463 0.011632 0.218608 
-0.071578 0.009307 0.213603 
-0.071636 0.003355 0.210335 
-0.071636 -0.003339 0.210335 
-0.071578 -0.009291 0.213603 
-0.071463 -0.011616 0.218608 
-0.071393 -0.011616 0.225446 
-0.022742 -0.011794 0.239897 
-0.021222 -0.006811 0.240649 
-0.021222 0.006826 0.240649 
-0.022705 0.011582 0.240095 
-0.022855 -0.013974 0.205605 
-0.023956 -0.012699 0.195671 
-0.021508 -0.016077 0.217774 
-0.020913 -0.016077 0.223140 
-0.024010 0.012475 0.195180 
-0.022855 0.013990 0.205605 
-0.021508 0.016093 0.217774 
-0.020913 0.016093 0.223140 
-0.024458 0.004392 0.191132 
-0.024458 -0.004376 0.191132 
-0.021212 -0.006811 0.240293 
-0.007397 -0.006811 0.242041 
0.009914 -0.006811 0.241203 
0.009914 0.006826 0.241203 
-0.007397 0.006826 0.242041 
-0.021212 0.006826 0.240293 
-0.021201 -0.006811 0.231258 
-0.007387 -0.006811 0.233005 
0.009925 -0.006811 0.232167 
0.009925 0.006826 0.232167 
-0.007387 0.006826 0.233005 
-0.021201 0.006826 0.231258 
-0.019900 -0.011130 0.184529 
-0.005722 -0.011323 0.184604 
0.003842 -0.011324 0.184603 
0.013444 -0.011341 0.184713 
-0.028266 -0.011694 0.239036 
-0.027941 -0.011792 0.239216 
-0.004886 -0.011791 0.241388 
0.015624 -0.011567 0.240315 
0.028047 -0.011567 0.237606 
-0.027906 -0.013974 0.205934 
-0.028280 -0.013868 0.206184 
0.019333 -0.013974 0.201758 
-0.031633 -0.015946 0.217774 
0.023832 -0.016077 0.216075 
-0.030201 -0.016077 0.222839 
0.026719 -0.015894 0.218937 
0.045247 -0.013480 0.230001 
0.041065 -0.016047 0.215791 
0.055992 -0.013481 0.217732 
0.050111 -0.016037 0.208674 
0.063507 -0.013954 0.203551 
0.058537 -0.016027 0.198987 
0.068626 -0.013954 0.191651 
0.064183 -0.016012 0.189472 
0.072365 -0.014091 0.180550 
0.070151 -0.015997 0.181105 
-0.022705 -0.011566 0.240095 
-0.024010 -0.012459 0.195180 
-0.019743 0.011353 0.184716 
-0.005722 0.011339 0.184604 
0.003842 0.011340 0.184603 
0.013283 0.011340 0.184597 
-0.027941 0.011808 0.239216 
-0.028266 0.011710 0.239036 
-0.004886 0.011807 0.241388 
0.015784 0.011806 0.240095 
0.028001 0.011807 0.237421 
0.020390 0.013805 0.201668 
-0.028280 0.013884 0.206184 
-0.027906 0.013990 0.205934 
0.024054 0.015910 0.216049 
-0.031314 0.016093 0.217774 
0.026719 0.015910 0.218937 
0.026482 0.016093 0.218978 
-0.030517 0.015960 0.222833 
0.045192 0.013711 0.229813 
0.040961 0.015911 0.215618 
0.055886 0.013722 0.217569 
0.050012 0.015910 0.208521 
0.063371 0.014204 0.203427 
0.058406 0.015910 0.198866 
0.068472 0.014218 0.191575 
0.064028 0.015910 0.189396 
0.072126 0.014377 0.180744 
0.070071 0.015889 0.180936 
-0.022742 0.011810 0.239897 
-0.023956 0.012714 0.195671 
-0.055240 -0.012928 0.232838 
-0.055191 -0.004860 0.237524 
-0.055191 0.004876 0.237524 
-0.055240 0.012944 0.232838 
-0.055444 0.016381 0.226529 
-0.055543 0.016381 0.216896 
-0.055705 0.013107 0.209846 
-0.055786 0.004723 0.205243 
-0.055786 -0.004707 0.205243 
-0.055705 -0.013091 0.209846 
-0.055543 -0.016366 0.216896 
-0.055444 -0.016366 0.226529 
-0.069914 -0.012928 0.233112 
-0.070004 -0.004827 0.237695 
-0.070004 0.004843 0.237695 
-0.070052 0.012860 0.233042 
-0.070254 0.016276 0.226774 
-0.070352 0.016276 0.217203 
-0.070513 0.013024 0.210199 
-0.070593 0.004693 0.205625 
-0.070593 -0.004677 0.205625 
-0.070513 -0.013008 0.210199 
-0.070352 -0.016260 0.217203 
-0.070118 -0.016366 0.226803 
-0.019012 -0.011793 0.240209 
-0.018904 -0.011567 0.240416 
-0.018311 -0.006811 0.241017 
-0.018318 -0.006811 0.240659 
-0.018511 -0.006811 0.231598 
-0.019133 0.006826 0.231519 
-0.019289 0.006826 0.240537 
-0.019295 0.006826 0.240893 
0.007395 0.006826 0.241680 
0.007554 -0.006811 0.241672 
0.007406 0.006826 0.241324 
0.007681 0.006826 0.232276 
0.007566 -0.006811 0.241317 
0.007889 -0.006811 0.232266 
0.009904 -0.000357 0.241559 
0.009914 -0.000352 0.241203 
0.009925 -0.000206 0.232167 
-0.021201 0.000545 0.231258 
-0.021212 0.000319 0.240293 
-0.021222 0.000309 0.240649 
-0.029638 0.000085 0.239374 
-0.030783 -0.000146 0.236653 
0.013605 -0.011134 0.184524 
0.014944 -0.003762 0.184482 
0.014944 0.003778 0.184482 
0.013610 0.011149 0.184522 
0.013276 -0.011324 0.184597 
0.013454 0.011357 0.184710 
-0.019573 -0.011323 0.184604 
-0.021248 -0.003770 0.184521 
-0.021090 0.003777 0.184422 
-0.019740 0.011133 0.184422 
-0.019740 -0.011117 0.184422 
-0.019573 0.011339 0.184604 
0.044671 -0.000609 0.229073 
0.044603 -0.000534 0.228987 
0.044603 0.000550 0.228987 
0.044671 0.000624 0.229073 
0.055929 -0.001903 0.217627 
0.055992 0.001997 0.217724 
0.063425 -0.002352 0.203466 
0.063507 0.002448 0.203541 
0.068530 -0.002673 0.191587 
0.068626 0.002772 0.191634 
0.072245 -0.003106 0.180570 
0.072365 0.003207 0.180550 
0.035223 -0.005884 0.217124 
0.035219 -0.006025 0.217024 
0.035219 0.006041 0.217024 
0.035223 0.005900 0.217124 
0.050012 -0.004988 0.208526 
0.050070 0.004865 0.208617 
0.058406 -0.004299 0.198868 
0.058485 0.004177 0.198940 
0.064028 -0.004028 0.189397 
0.064125 0.003907 0.189444 
0.070071 -0.003655 0.180936 
0.070220 0.003531 0.180911 
0.044919 -0.003421 0.229477 
0.041555 -0.000997 0.231352 
0.041659 0.000995 0.231263 
0.044937 0.003566 0.229505 
