-0.000256 0.001575 0.039496 
-0.000230 0.001442 0.038846 
-0.000501 0.001360 0.038766 
-0.000553 0.001485 0.039409 
-0.001530 0.000022 0.039515 
-0.001395 0.000022 0.038864 
-0.001367 -0.000260 0.038864 
-0.001500 -0.000287 0.039516 
-0.000256 -0.001531 0.039380 
-0.000230 -0.001397 0.038740 
0.000053 -0.001425 0.038821 
0.000053 -0.001561 0.039469 
-0.001067 -0.001097 0.039483 
-0.000971 -0.001001 0.038835 
-0.000751 -0.001181 0.038845 
-0.000827 -0.001294 0.039495 
0.001172 0.001142 0.039384 
0.001076 0.001046 0.038744 
0.000857 0.001226 0.038768 
0.000932 0.001339 0.039410 
-0.001284 -0.000532 0.038893 
-0.001410 -0.000584 0.039547 
0.001606 0.000331 0.039394 
0.001473 0.000305 0.038752 
0.001390 0.000576 0.038791 
0.001516 0.000628 0.039435 
0.001516 -0.000584 0.039500 
0.001390 -0.000532 0.038850 
0.001473 -0.000260 0.038740 
0.001606 -0.000287 0.039380 
-0.001264 0.000902 0.039463 
-0.001151 0.000826 0.038815 
-0.001284 0.000576 0.038883 
-0.001410 0.000628 0.039537 
0.000932 -0.001294 0.039463 
0.000857 -0.001181 0.038816 
0.001076 -0.001001 0.038871 
0.001172 -0.001097 0.039523 
-0.000751 0.001226 0.038766 
-0.000827 0.001339 0.039408 
0.000335 -0.001397 0.038859 
0.000362 -0.001531 0.039510 
0.000362 0.001575 0.039504 
0.000335 0.001442 0.038853 
0.000053 0.001470 0.038847 
0.000053 0.001606 0.039497 
-0.000501 -0.001315 0.038916 
-0.000553 -0.001440 0.039572 
0.000607 0.001360 0.038762 
0.000659 0.001485 0.039404 
-0.001151 -0.000782 0.038765 
-0.001264 -0.000857 0.039408 
0.001256 0.000826 0.038796 
0.001369 0.000902 0.039441 
0.001500 0.000022 0.038887 
0.001636 0.000022 0.039541 
-0.001500 0.000331 0.039424 
-0.001367 0.000305 0.038780 
0.001256 -0.000782 0.038800 
0.001369 -0.000857 0.039445 
-0.000971 0.001046 0.038758 
-0.001067 0.001142 0.039400 
0.000607 -0.001315 0.038865 
0.000659 -0.001440 0.039516 
-0.000059 -0.000248 0.039655 
-0.000110 -0.000221 0.039641 
0.000110 -0.000265 0.039644 
0.000053 -0.000270 0.039637 
0.000260 -0.000185 0.039646 
0.000215 -0.000221 0.039635 
0.000340 -0.000035 0.039620 
0.000323 -0.000090 0.039642 
0.000323 0.000134 0.039630 
0.000340 0.000079 0.039622 
0.000215 0.000265 0.039626 
0.000260 0.000229 0.039621 
0.000053 0.000315 0.039642 
0.000110 0.000309 0.039643 
-0.000110 0.000265 0.039625 
-0.000059 0.000293 0.039625 
-0.000217 0.000134 0.039649 
-0.000190 0.000185 0.039635 
-0.000240 0.000022 0.039645 
-0.000234 -0.000035 0.039645 
-0.000154 -0.000185 0.039639 
-0.000190 -0.000140 0.039625 
-0.000004 -0.000265 0.039620 
0.000165 -0.000248 0.039645 
0.000296 -0.000140 0.039632 
0.000345 0.000022 0.039650 
0.000296 0.000185 0.039631 
0.000165 0.000293 0.039624 
-0.000004 0.000309 0.039641 
-0.000154 0.000229 0.039624 
-0.000234 0.000079 0.039628 
-0.000217 -0.000090 0.039651 
0.000053 0.000022 0.039677 
-0.037650 0.000000 0.015595 
-0.033884 0.000000 0.022643 
-0.033233 0.006610 0.022657 
-0.036926 0.007345 0.015595 
-0.028816 0.000000 -0.028816 
-0.033884 0.000000 -0.022641 
-0.033233 0.006610 -0.022641 
-0.028262 0.005622 -0.028816 
-0.039969 0.000000 0.007950 
-0.039201 0.007798 0.007950 
-0.015595 0.000000 0.037702 
-0.007950 0.000000 0.040265 
-0.007798 0.001551 0.040066 
-0.015295 0.003042 0.037673 
-0.022641 0.000000 -0.033884 
-0.022205 0.004417 -0.033884 
-0.040752 0.000000 0.000000 
-0.039969 0.007950 0.000000 
-0.022641 0.000000 0.034016 
-0.022205 0.004417 0.033889 
-0.015595 0.000000 -0.037650 
-0.015295 0.003042 -0.037650 
-0.039969 0.000000 -0.007950 
-0.039201 0.007798 -0.007950 
-0.028816 0.000000 0.028838 
-0.028262 0.005622 0.028877 
-0.037650 0.000000 -0.015595 
-0.036926 0.007345 -0.015595 
-0.034784 0.014408 -0.015595 
-0.031305 0.012967 -0.022641 
-0.031305 0.012967 0.022645 
-0.034784 0.014408 0.015595 
-0.026622 0.011027 -0.028816 
-0.036926 0.015295 0.007950 
-0.007345 0.003042 0.040049 
-0.014408 0.005968 0.037768 
-0.020917 0.008664 -0.033884 
-0.037650 0.015595 0.000000 
-0.020917 0.008664 0.033957 
-0.014408 0.005968 -0.037650 
-0.036926 0.015295 -0.007950 
-0.026622 0.011027 0.028858 
-0.008003 0.001592 -0.039737 
-0.007538 0.003122 -0.039737 
-0.033233 0.022205 -0.007950 
-0.031305 0.020917 -0.015595 
-0.023960 0.016009 0.028850 
-0.028173 0.018825 0.022655 
-0.028173 0.018825 -0.022641 
-0.031305 0.020917 0.015595 
-0.023960 0.016009 -0.028816 
-0.033233 0.022205 0.007950 
-0.006610 0.004417 0.040011 
-0.012967 0.008664 0.037693 
-0.018825 0.012578 -0.033884 
-0.033884 0.022641 0.000000 
-0.018825 0.012578 0.033889 
-0.012967 0.008664 -0.037650 
-0.016009 0.016009 -0.033884 
-0.011027 0.011027 -0.037650 
-0.028816 0.028816 0.000000 
-0.028262 0.028262 -0.007950 
-0.016009 0.016009 0.033926 
-0.020376 0.020376 0.028849 
-0.026622 0.026622 -0.015595 
-0.023960 0.023960 0.022641 
-0.023960 0.023960 -0.022641 
-0.026622 0.026622 0.015595 
-0.020376 0.020376 -0.028816 
-0.028262 0.028262 0.007950 
-0.005622 0.005622 0.040189 
-0.011027 0.011027 0.037837 
-0.004417 0.006610 0.040083 
-0.008664 0.012967 0.037787 
-0.016009 0.023960 -0.028816 
-0.012578 0.018825 -0.033884 
-0.022205 0.033233 0.007950 
-0.022641 0.033884 0.000000 
-0.012578 0.018825 0.033961 
-0.008664 0.012967 -0.037650 
-0.022205 0.033233 -0.007950 
-0.016009 0.023960 0.028822 
-0.005770 0.005770 -0.039737 
-0.004533 0.006784 -0.039737 
-0.020917 0.031305 -0.015595 
-0.018825 0.028173 0.022649 
-0.018825 0.028173 -0.022641 
-0.020917 0.031305 0.015595 
-0.012967 0.031305 0.022643 
-0.014408 0.034784 0.015595 
-0.012967 0.031305 -0.022641 
-0.011027 0.026622 -0.028816 
-0.015295 0.036926 0.007950 
-0.003042 0.007345 0.040198 
-0.005968 0.014408 0.037832 
-0.008664 0.020917 -0.033884 
-0.015595 0.037650 0.000000 
-0.008664 0.020917 0.034001 
-0.005968 0.014408 -0.037650 
-0.015295 0.036926 -0.007950 
-0.011027 0.026622 0.028851 
-0.003122 0.007538 -0.039737 
-0.014408 0.034784 -0.015595 
-0.007798 0.039201 -0.007950 
-0.007345 0.036926 -0.015595 
-0.005622 0.028262 0.028859 
-0.006610 0.033233 0.022645 
-0.006610 0.033233 -0.022641 
-0.007345 0.036926 0.015595 
-0.005622 0.028262 -0.028816 
-0.007798 0.039201 0.007950 
-0.001551 0.007798 0.039975 
-0.003042 0.015295 0.037718 
-0.004417 0.022206 -0.033884 
-0.007950 0.039969 0.000000 
-0.004417 0.022206 0.033950 
-0.003042 0.015295 -0.037650 
-0.001592 0.008003 -0.039737 
0.000000 0.022641 -0.033884 
0.000000 0.015595 -0.037650 
0.000000 0.040752 0.000000 
0.000000 0.039969 -0.007950 
0.000052 0.022753 0.033829 
0.000000 0.028816 0.028818 
0.000000 0.008159 -0.039737 
0.000000 0.037650 -0.015595 
0.000000 0.033884 0.022643 
0.000000 0.033884 -0.022641 
0.000000 0.037650 0.015595 
0.000000 0.028816 -0.028816 
0.000000 0.039969 0.007950 
0.000000 0.007950 0.040166 
0.000000 0.015595 0.037733 
0.001551 0.007798 0.040085 
0.003042 0.015295 0.037704 
0.005622 0.028262 -0.028816 
0.004417 0.022205 -0.033884 
0.007798 0.039201 0.007950 
0.007950 0.039969 0.000000 
0.004524 0.021933 0.034155 
0.003042 0.015295 -0.037650 
0.007798 0.039201 -0.007950 
0.005622 0.028262 0.028872 
0.007345 0.036926 -0.015595 
0.006610 0.033233 0.022641 
0.006610 0.033233 -0.022641 
0.007345 0.036926 0.015595 
0.012967 0.031305 0.022641 
0.014408 0.034784 0.015595 
0.012967 0.031305 -0.022641 
0.011027 0.026622 -0.028816 
0.015295 0.036926 0.007950 
0.003042 0.007345 0.040223 
0.005968 0.014408 0.037786 
0.008664 0.020917 -0.033884 
0.015595 0.037650 0.000000 
0.008664 0.020917 0.034003 
0.005968 0.014408 -0.037650 
0.015295 0.036926 -0.007950 
0.011027 0.026622 0.028840 
0.014408 0.034784 -0.015595 
0.022206 0.033233 -0.007950 
0.020917 0.031305 -0.015595 
0.016009 0.023960 0.028823 
0.018825 0.028173 0.022642 
0.018825 0.028173 -0.022641 
0.020917 0.031305 0.015595 
0.016009 0.023960 -0.028816 
0.022206 0.033233 0.007950 
0.004417 0.006610 0.039997 
0.008664 0.012967 0.037651 
0.012578 0.018825 -0.033884 
0.022641 0.033884 0.000000 
0.012578 0.018825 0.033988 
0.008664 0.012967 -0.037650 
0.003123 0.007538 -0.039737 
0.004533 0.006784 -0.039737 
0.016009 0.016009 -0.033884 
0.011027 0.011027 -0.037650 
0.028816 0.028816 0.000000 
0.028262 0.028262 -0.007950 
0.016009 0.016009 0.034003 
0.020376 0.020376 0.028842 
0.026622 0.026622 -0.015595 
0.023960 0.023960 0.022643 
0.023960 0.023960 -0.022641 
0.026622 0.026622 0.015595 
0.020376 0.020376 -0.028816 
0.028262 0.028262 0.007950 
0.005622 0.005622 0.040053 
0.011027 0.011027 0.037833 
0.023960 0.016009 -0.028816 
0.018825 0.012578 -0.033884 
0.033233 0.022205 0.007950 
0.033884 0.022641 0.000000 
0.012967 0.008664 0.037727 
0.018825 0.012578 0.033942 
0.012967 0.008664 -0.037650 
0.033233 0.022205 -0.007950 
0.023960 0.016009 0.028866 
0.031305 0.020917 -0.015595 
0.028173 0.018825 0.022644 
0.028173 0.018825 -0.022641 
0.031305 0.020917 0.015595 
0.006610 0.004417 0.040124 
0.031305 0.012967 -0.022641 
0.026622 0.011027 -0.028816 
0.034784 0.014408 0.015595 
0.036926 0.015295 0.007950 
0.007345 0.003042 0.040174 
0.014408 0.005968 0.037675 
0.020917 0.008664 -0.033884 
0.037650 0.015595 0.000000 
0.020917 0.008664 0.033904 
0.014408 0.005968 -0.037650 
0.036926 0.015295 -0.007950 
0.026622 0.011027 0.028872 
0.006784 0.004533 -0.039737 
0.007538 0.003122 -0.039737 
0.034784 0.014408 -0.015595 
0.031305 0.012967 0.022646 
0.028262 0.005622 0.028836 
0.033233 0.006610 0.022646 
0.036926 0.007345 -0.015595 
0.033233 0.006610 -0.022641 
0.036926 0.007345 0.015595 
0.028262 0.005622 -0.028816 
0.039201 0.007798 0.007950 
0.007798 0.001551 0.040208 
0.015295 0.003042 0.037774 
0.022206 0.004417 -0.033884 
0.039969 0.007950 0.000000 
0.022206 0.004417 0.033986 
0.015295 0.003042 -0.037650 
0.039201 0.007798 -0.007950 
0.008003 0.001592 -0.039737 
0.040752 -0.000000 0.000000 
0.039969 -0.000000 -0.007950 
0.022641 -0.000000 0.033904 
0.028816 -0.000000 0.028837 
0.037650 -0.000000 -0.015595 
0.033884 -0.000000 0.022645 
0.033884 -0.000000 -0.022641 
0.037650 -0.000000 0.015595 
0.028816 -0.000000 -0.028816 
0.039969 -0.000000 0.007950 
0.007950 -0.000000 0.040092 
0.015595 -0.000000 0.037862 
0.022641 -0.000000 -0.033884 
0.015595 -0.000000 -0.037650 
0.028262 -0.005622 -0.028816 
0.022206 -0.004417 -0.033884 
0.039201 -0.007798 0.007950 
0.039969 -0.007950 0.000000 
0.015295 -0.003042 0.037717 
0.022206 -0.004417 0.034008 
0.015295 -0.003042 -0.037650 
0.039201 -0.007798 -0.007950 
0.028262 -0.005622 0.028857 
0.036926 -0.007345 -0.015595 
0.033233 -0.006610 0.022650 
0.033233 -0.006610 -0.022641 
0.036926 -0.007345 0.015595 
0.007798 -0.001551 0.039990 
0.031305 -0.012967 -0.022641 
0.026622 -0.011027 -0.028816 
0.034784 -0.014408 0.015595 
0.036926 -0.015295 0.007950 
0.007345 -0.003042 0.040124 
0.014408 -0.005968 0.037724 
0.020917 -0.008664 -0.033884 
0.037650 -0.015595 0.000000 
0.020917 -0.008664 0.033950 
0.014408 -0.005968 -0.037650 
0.036926 -0.015295 -0.007950 
0.026622 -0.011027 0.028844 
0.008003 -0.001592 -0.039737 
0.007538 -0.003122 -0.039737 
0.034784 -0.014408 -0.015595 
0.031305 -0.012967 0.022647 
0.023960 -0.016009 0.028857 
0.028173 -0.018825 0.022645 
0.031305 -0.020917 -0.015595 
0.028173 -0.018825 -0.022641 
0.031305 -0.020917 0.015595 
0.023960 -0.016009 -0.028816 
0.033233 -0.022205 0.007950 
0.006610 -0.004417 0.040143 
0.012967 -0.008664 0.037661 
0.018825 -0.012578 -0.033884 
0.033884 -0.022641 0.000000 
0.018825 -0.012578 0.033958 
0.012967 -0.008664 -0.037650 
0.033233 -0.022205 -0.007950 
0.028816 -0.028816 0.000000 
0.028262 -0.028262 -0.007950 
0.016009 -0.016009 0.033974 
0.020376 -0.020376 0.028827 
0.026622 -0.026622 -0.015595 
0.023960 -0.023960 0.022655 
0.023960 -0.023960 -0.022641 
0.026622 -0.026622 0.015595 
0.020376 -0.020376 -0.028816 
0.028262 -0.028262 0.007950 
0.005622 -0.005622 0.040007 
0.011027 -0.011027 0.037809 
0.016009 -0.016009 -0.033884 
0.011027 -0.011027 -0.037650 
0.016009 -0.023960 -0.028816 
0.012578 -0.018825 -0.033884 
0.022205 -0.033233 0.007950 
0.022641 -0.033884 0.000000 
0.008664 -0.012967 0.037866 
0.012578 -0.018825 0.033887 
0.008664 -0.012967 -0.037650 
0.022205 -0.033233 -0.007950 
0.016009 -0.023960 0.028902 
0.020917 -0.031305 -0.015595 
0.018825 -0.028173 0.022655 
0.018825 -0.028173 -0.022641 
0.020917 -0.031305 0.015595 
0.004417 -0.006610 0.040209 
0.012967 -0.031305 -0.022641 
0.011027 -0.026622 -0.028816 
0.014408 -0.034784 0.015595 
0.015295 -0.036926 0.007950 
0.003042 -0.007345 0.040163 
0.005968 -0.014408 0.037794 
0.008664 -0.020917 -0.033884 
0.015595 -0.037650 0.000000 
0.008664 -0.020917 0.034027 
0.005968 -0.014408 -0.037650 
0.015295 -0.036926 -0.007950 
0.011027 -0.026622 0.028843 
0.014408 -0.034784 -0.015595 
0.012967 -0.031305 0.022680 
0.007345 -0.036926 -0.015595 
0.006610 -0.033233 -0.022641 
0.006610 -0.033233 0.022647 
0.007345 -0.036926 0.015595 
0.005622 -0.028262 -0.028816 
0.007798 -0.039201 0.007950 
0.001551 -0.007798 0.040180 
0.003042 -0.015295 0.037814 
0.004417 -0.022205 -0.033884 
0.007950 -0.039969 0.000000 
0.004417 -0.022205 0.033980 
0.003042 -0.015295 -0.037650 
0.007798 -0.039201 -0.007950 
0.005622 -0.028262 0.028853 
0.003123 -0.007538 -0.039737 
0.001592 -0.008003 -0.039737 
0.000000 -0.022641 0.033928 
0.000000 -0.028816 0.028848 
0.000000 -0.039969 -0.007950 
0.000000 -0.037650 -0.015595 
0.000000 -0.033884 0.022675 
0.000000 -0.033884 -0.022641 
0.000000 -0.037650 0.015595 
0.000000 -0.028816 -0.028816 
0.000000 -0.039969 0.007950 
0.000000 -0.007950 0.040004 
0.000000 -0.015595 0.037810 
0.000000 -0.022641 -0.033884 
0.000000 -0.040752 0.000000 
0.000000 -0.015595 -0.037650 
-0.007798 -0.039201 0.007950 
-0.007950 -0.039969 0.000000 
-0.003042 -0.015295 0.037736 
-0.004417 -0.022205 0.033938 
-0.004417 -0.022205 -0.033884 
-0.003042 -0.015295 -0.037650 
-0.007798 -0.039201 -0.007950 
-0.005622 -0.028262 0.028921 
-0.007345 -0.036926 -0.015595 
-0.006610 -0.033233 0.022661 
-0.006610 -0.033233 -0.022641 
-0.007345 -0.036926 0.015595 
-0.005622 -0.028262 -0.028816 
-0.001551 -0.007798 0.040251 
-0.012967 -0.031305 -0.022641 
-0.011027 -0.026622 -0.028816 
-0.014408 -0.034784 0.015595 
-0.015295 -0.036926 0.007950 
-0.003042 -0.007345 0.040138 
-0.005968 -0.014408 0.037775 
-0.008664 -0.020917 -0.033884 
-0.015595 -0.037650 0.000000 
-0.008664 -0.020917 0.034045 
-0.005968 -0.014408 -0.037650 
-0.015295 -0.036926 -0.007950 
-0.011027 -0.026622 0.028851 
-0.014408 -0.034784 -0.015595 
-0.012967 -0.031305 0.022688 
-0.020917 -0.031305 -0.015595 
-0.018825 -0.028173 -0.022641 
-0.018825 -0.028173 0.022654 
-0.020917 -0.031305 0.015595 
-0.016009 -0.023960 -0.028816 
-0.022205 -0.033233 0.007950 
-0.004417 -0.006610 0.040120 
-0.008664 -0.012967 0.037708 
-0.012578 -0.018825 -0.033884 
-0.022641 -0.033884 0.000000 
-0.012578 -0.018825 0.034061 
-0.008664 -0.012967 -0.037650 
-0.022205 -0.033233 -0.007950 
-0.016009 -0.023960 0.028894 
-0.016009 -0.016009 0.033941 
-0.020376 -0.020376 0.028834 
-0.028262 -0.028262 -0.007950 
-0.026622 -0.026622 -0.015595 
-0.023960 -0.023960 0.022677 
-0.023960 -0.023960 -0.022641 
-0.026622 -0.026622 0.015595 
-0.020376 -0.020376 -0.028816 
-0.028262 -0.028262 0.007950 
-0.005622 -0.005622 0.040211 
-0.011027 -0.011027 0.037695 
-0.016009 -0.016009 -0.033884 
-0.028816 -0.028816 0.000000 
-0.011027 -0.011027 -0.037650 
-0.033233 -0.022205 0.007950 
-0.033884 -0.022641 0.000000 
-0.012967 -0.008664 0.037842 
-0.018825 -0.012578 0.034024 
-0.018825 -0.012578 -0.033884 
-0.012967 -0.008664 -0.037650 
-0.033233 -0.022205 -0.007950 
-0.023960 -0.016009 0.028834 
-0.031305 -0.020917 -0.015595 
-0.028173 -0.018825 0.022664 
-0.028173 -0.018825 -0.022641 
-0.031305 -0.020917 0.015595 
-0.023960 -0.016009 -0.028816 
-0.006610 -0.004417 0.040171 
-0.031305 -0.012967 -0.022641 
-0.026622 -0.011027 -0.028816 
-0.034784 -0.014408 0.015595 
-0.036926 -0.015295 0.007950 
-0.007345 -0.003042 0.040119 
-0.014408 -0.005968 0.037765 
-0.020917 -0.008664 -0.033884 
-0.037650 -0.015595 0.000000 
-0.020917 -0.008664 0.033936 
-0.014408 -0.005968 -0.037650 
-0.036926 -0.015295 -0.007950 
-0.026622 -0.011027 0.028905 
-0.034784 -0.014408 -0.015595 
-0.031305 -0.012967 0.022659 
-0.036926 -0.007345 -0.015595 
-0.033233 -0.006610 -0.022641 
-0.033233 -0.006610 0.022667 
-0.036926 -0.007345 0.015595 
-0.028262 -0.005622 -0.028816 
-0.039201 -0.007798 0.007950 
-0.007798 -0.001551 0.040218 
-0.015295 -0.003042 0.037794 
-0.022205 -0.004417 -0.033884 
-0.039969 -0.007950 0.000000 
-0.022205 -0.004417 0.033959 
-0.015295 -0.003042 -0.037650 
-0.039201 -0.007798 -0.007950 
-0.028262 -0.005622 0.028828 
-0.000875 -0.001310 0.039554 
-0.001114 -0.001114 0.039543 
0.001546 -0.000307 0.039440 
0.001456 -0.000603 0.039560 
0.001310 -0.000875 0.039505 
0.001114 -0.001114 0.039583 
0.000875 -0.001310 0.039523 
0.001114 0.001114 0.039444 
0.001310 0.000875 0.039501 
0.000307 0.001545 0.039563 
0.000603 0.001456 0.039464 
-0.007538 -0.003122 -0.039737 
-0.008003 -0.001592 -0.039737 
-0.001277 -0.000254 -0.038906 
-0.001203 -0.000498 -0.038906 
0.000875 0.001310 0.039470 
-0.001545 0.000307 0.039484 
-0.001456 0.000603 0.039596 
0.000307 -0.001545 0.039570 
0.000000 -0.001576 0.039529 
0.001456 0.000603 0.039495 
0.001546 0.000307 0.039454 
-0.000875 0.001310 0.039468 
-0.000603 0.001456 0.039469 
-0.000307 0.001545 0.039556 
0.000000 0.001576 0.039556 
-0.001545 -0.000307 0.039575 
-0.001576 0.000000 0.039575 
0.005770 -0.005770 -0.039737 
0.004533 -0.006784 -0.039737 
0.000724 -0.001083 -0.038906 
0.000921 -0.000921 -0.038906 
-0.001310 -0.000875 0.039468 
-0.000307 -0.001545 0.039440 
-0.000603 -0.001456 0.039632 
-0.001310 0.000875 0.039522 
-0.001114 0.001114 0.039460 
0.006784 -0.004533 -0.039737 
0.001083 -0.000724 -0.038906 
0.001576 0.000000 0.039600 
-0.001456 -0.000603 0.039607 
0.000603 -0.001456 0.039576 
-0.008159 -0.000000 -0.039737 
-0.001302 0.000000 -0.038906 
-0.004533 -0.006784 -0.039737 
-0.005770 -0.005770 -0.039737 
-0.000921 -0.000921 -0.038906 
-0.000724 -0.001083 -0.038906 
-0.003122 -0.007538 -0.039737 
-0.000498 -0.001203 -0.038906 
0.000254 -0.001277 -0.038906 
0.000000 -0.001302 -0.038906 
0.000000 -0.001302 -0.039168 
0.000254 -0.001277 -0.039168 
0.000724 -0.001083 -0.039168 
0.000498 -0.001203 -0.039168 
0.000084 -0.000202 -0.039103 
0.000122 -0.000182 -0.039103 
-0.000254 -0.001277 -0.039168 
-0.000498 -0.001203 -0.039168 
-0.000084 -0.000202 -0.039103 
-0.000043 -0.000215 -0.039103 
-0.000498 0.001203 -0.039168 
-0.000254 0.001277 -0.039168 
-0.000043 0.000215 -0.039103 
-0.000084 0.000202 -0.039103 
0.000043 -0.000215 -0.039103 
0.001277 0.000254 -0.038906 
0.001203 0.000498 -0.038906 
-0.006784 -0.004533 -0.039737 
-0.001083 -0.000724 -0.038906 
-0.006784 0.004533 -0.039737 
-0.001083 0.000724 -0.038906 
-0.001203 0.000498 -0.038906 
0.000498 -0.001203 -0.038906 
-0.000254 0.001277 -0.038906 
-0.000498 0.001203 -0.038906 
0.005770 0.005770 -0.039737 
0.001592 0.008003 -0.039737 
0.000498 0.001203 -0.038906 
0.000254 0.001277 -0.038906 
0.008159 -0.000000 -0.039737 
0.000000 0.001302 -0.038906 
0.001083 0.000724 -0.038906 
0.000921 0.000921 -0.038906 
0.000000 -0.008159 -0.039737 
-0.001592 -0.008003 -0.039737 
-0.000254 -0.001277 -0.038906 
-0.001277 0.000254 -0.038906 
-0.000921 0.000921 -0.038906 
0.001302 0.000000 -0.038906 
0.000724 0.001083 -0.038906 
0.001277 -0.000254 -0.038906 
0.001203 -0.000498 -0.038906 
-0.000724 0.001083 -0.038906 
-0.000307 0.001545 0.038912 
-0.000603 0.001456 0.038825 
-0.000350 0.000845 0.037916 
-0.000179 0.000898 0.037966 
-0.001576 0.000000 0.038931 
-0.001545 -0.000307 0.038931 
-0.000897 -0.000179 0.037977 
-0.000915 0.000000 0.037977 
-0.000307 -0.001545 0.038796 
0.000000 -0.001576 0.038885 
0.000000 -0.000915 0.037950 
-0.000179 -0.000898 0.037899 
-0.001114 -0.001114 0.038899 
-0.000875 -0.001310 0.038910 
-0.000508 -0.000761 0.037965 
-0.000647 -0.000647 0.037959 
0.001114 0.001114 0.038800 
0.000875 0.001310 0.038826 
0.000508 0.000761 0.037916 
0.000647 0.000647 0.037901 
-0.001456 -0.000603 0.038963 
-0.000845 -0.000350 0.037996 
0.001546 0.000307 0.038809 
0.001456 0.000603 0.038851 
0.000845 0.000350 0.037931 
0.000898 0.000179 0.037907 
0.001456 -0.000603 0.038916 
0.001546 -0.000307 0.038796 
0.000898 -0.000179 0.037899 
0.000845 -0.000350 0.037968 
-0.001310 0.000875 0.038878 
-0.001456 0.000603 0.038952 
-0.000845 0.000350 0.037990 
-0.000761 0.000508 0.037947 
0.000875 -0.001310 0.038879 
0.001114 -0.001114 0.038938 
0.000647 -0.000647 0.037982 
0.000508 -0.000761 0.037947 
-0.000875 0.001310 0.038824 
-0.000508 0.000761 0.037915 
0.000307 -0.001545 0.038925 
0.000179 -0.000898 0.037974 
0.000307 0.001545 0.038919 
0.000000 0.001576 0.038912 
0.000000 0.000915 0.037966 
0.000179 0.000898 0.037970 
-0.000603 -0.001456 0.038988 
-0.000350 -0.000845 0.038010 
0.000603 0.001456 0.038820 
0.000350 0.000845 0.037913 
-0.001310 -0.000875 0.038824 
-0.000761 -0.000508 0.037915 
0.001310 0.000875 0.038857 
0.000761 0.000508 0.037934 
0.001576 0.000000 0.038956 
0.000915 0.000000 0.037992 
-0.001545 0.000307 0.038840 
-0.000897 0.000179 0.037924 
0.001310 -0.000875 0.038861 
0.000761 -0.000508 0.037937 
-0.001114 0.001114 0.038816 
-0.000647 0.000647 0.037910 
0.000603 -0.001456 0.038932 
0.000350 -0.000845 0.037978 
-0.000921 0.000921 -0.039168 
-0.001083 0.000724 -0.039168 
-0.000724 0.001083 -0.039168 
-0.001203 -0.000498 -0.039168 
-0.001083 -0.000724 -0.039168 
0.001277 0.000254 -0.039168 
0.001203 0.000498 -0.039168 
-0.001277 -0.000254 -0.039168 
0.000254 0.001277 -0.039168 
0.000000 0.001302 -0.039168 
-0.000202 -0.000084 -0.039103 
-0.000182 -0.000122 -0.039103 
0.001277 -0.000254 -0.039168 
0.001203 -0.000498 -0.039168 
0.000202 -0.000084 -0.039103 
0.000215 -0.000043 -0.039103 
0.000921 0.000921 -0.039168 
0.001083 0.000724 -0.039168 
0.000182 0.000122 -0.039103 
0.000155 0.000155 -0.039103 
0.000921 -0.000921 -0.039168 
0.001083 -0.000724 -0.039168 
-0.000921 -0.000921 -0.039168 
-0.000155 -0.000155 -0.039103 
-0.001302 0.000000 -0.039168 
-0.001277 0.000254 -0.039168 
-0.000215 0.000043 -0.039103 
-0.000219 0.000000 -0.039103 
-0.001203 0.000498 -0.039168 
-0.000202 0.000084 -0.039103 
0.000000 -0.000219 -0.039103 
0.001302 0.000000 -0.039168 
0.000219 0.000000 -0.039103 
0.000724 0.001083 -0.039168 
0.000498 0.001203 -0.039168 
-0.000215 -0.000043 -0.039103 
0.000182 -0.000122 -0.039103 
0.000000 0.000219 -0.039103 
0.000084 0.000202 -0.039103 
0.000043 0.000215 -0.039103 
0.000215 0.000043 -0.039103 
0.000202 0.000084 -0.039103 
-0.000182 0.000122 -0.039103 
0.000155 -0.000155 -0.039103 
0.000122 0.000182 -0.039103 
-0.000122 0.000182 -0.039103 
-0.000155 0.000155 -0.039103 
-0.000724 -0.001083 -0.039168 
-0.000122 -0.000182 -0.039103 
0.000000 0.000000 -0.039103 
0.000000 0.000000 0.037948 
