-18.462740 -31.560331 -18.389481 
-17.404480 -31.979570 -18.535540 
-5.440560 20.242031 36.503521 
-4.759710 20.413052 36.503521 
-4.074930 20.563099 36.503521 
-4.248910 21.611860 35.743538 
-4.968790 21.453640 35.743538 
-5.685150 21.273890 35.743538 
-2.694260 20.797510 36.503521 
-3.386400 20.691481 36.503521 
-2.800390 21.861679 35.743538 
-3.525960 21.748049 35.743538 
-2.896800 22.897911 34.945038 
-2.987140 23.907558 34.109032 
-3.779120 23.780169 34.109032 
-3.655750 22.777191 34.945038 
-4.569570 23.629351 34.109032 
-4.412740 22.633551 34.945038 
-5.357780 23.455450 34.109032 
-5.918340 22.279110 34.945038 
-5.167140 22.467379 34.945038 
29.546740 27.226240 4.287530 
30.435469 26.245972 4.287530 
30.517139 26.317480 2.888650 
29.626019 27.300360 2.888620 
31.291649 25.237219 4.287530 
31.375610 25.306070 2.888700 
31.442890 25.360661 0.082960 
31.426050 25.347260 1.486700 
30.582571 26.373890 0.082510 
30.566198 26.360189 1.486520 
29.689541 27.358589 0.082140 
29.673641 27.344540 1.486380 
40.032303 4.866150 -4.119960 
39.881092 4.846320 -5.514200 
39.721210 6.150070 -5.514200 
39.871632 6.174810 -4.119960 
39.508369 7.446860 -5.514200 
39.657780 7.476490 -4.119960 
39.764629 7.497670 -2.721210 
39.979218 6.192500 -2.721210 
40.140461 4.880320 -2.721210 
39.245152 8.735300 -5.514200 
39.080948 10.053320 -4.119960 
39.393353 8.769790 -4.119960 
39.185970 10.081429 -2.721210 
39.499340 8.794450 -2.721210 
39.249062 10.098310 -1.319470 
39.270119 10.103951 0.083780 
39.584259 8.814210 0.083780 
39.563011 8.809260 -1.319470 
39.850258 7.514650 0.083780 
39.828819 7.510400 -1.319470 
40.065441 6.206670 0.083780 
40.227150 4.891680 0.083780 
40.205452 4.888840 -1.319470 
40.043858 6.203130 -1.319470 
-4.639910 -28.690880 -30.120070 
-4.790490 -29.623520 -29.154129 
-4.935910 -30.513729 -28.145821 
-5.919300 -30.338860 -28.156969 
-5.745140 -29.456490 -29.166679 
-5.564790 -28.530180 -30.135010 
-5.210610 -32.149227 -26.021099 
-5.076000 -31.357100 -27.099890 
-6.248300 -31.949242 -26.041149 
-6.087080 -31.171650 -27.112810 
-7.279320 -31.713070 -26.062592 
-7.091660 -30.951870 -27.125790 
-6.896360 -30.131050 -28.167410 
-6.483720 -28.338758 -30.149010 
-6.693640 -29.257669 -29.178219 
13.645149 -16.996481 -36.327168 
14.175700 -16.542950 -36.324360 
14.910240 -17.379921 -35.565140 
14.351781 -17.856550 -35.566521 
14.689179 -16.071569 -36.318958 
15.450690 -16.884201 -35.560719 
16.197031 -17.681089 -34.764870 
15.630321 -18.200680 -34.768089 
15.044611 -18.700050 -34.767960 
-38.066860 8.567660 9.603360 
-38.341202 8.635570 8.237590 
-38.622108 7.362500 8.239870 
-38.344620 7.305550 9.605470 
-38.586361 8.691000 6.865350 
-38.869072 7.409420 6.867730 
-39.109982 6.120760 6.869410 
-38.861572 6.083170 8.240960 
-38.581360 6.038040 9.605840 
5.925010 24.663961 -33.049709 
5.123170 24.825871 -33.037048 
5.329200 25.806450 -32.139759 
6.160490 25.642519 -32.148357 
4.320960 24.957350 -33.021252 
4.497250 25.938511 -32.128880 
4.671420 26.890221 -31.199301 
5.531971 26.757620 -31.205891 
6.391490 26.591871 -31.211071 
-11.308189 -27.767729 29.377401 
-11.816781 -26.551750 30.393951 
-12.198330 -27.376169 29.373659 
-12.666410 -26.144190 30.390230 
-13.075300 -26.954500 29.369162 
-13.470150 -27.732460 28.313950 
-12.566780 -28.167711 28.319130 
-11.649840 -28.572029 28.323601 
-13.502409 -25.708071 30.385839 
-13.938210 -26.503338 29.363958 
-14.359040 -27.266911 28.308119 
-15.154060 -28.704140 26.104319 
-14.764470 -28.000071 27.220749 
-14.216080 -29.196848 26.110922 
-13.850550 -28.479450 27.227060 
-13.262830 -29.657650 26.116970 
-12.295260 -30.085739 26.122459 
-11.978980 -29.344271 27.237850 
-12.921740 -28.927752 27.232771 
-33.976929 15.602530 -16.834709 
-34.508690 14.648100 -16.973179 
-34.921978 14.743299 -15.598520 
-34.381729 15.731610 -15.477490 
-35.298710 14.800561 -14.188130 
-34.754280 15.826950 -14.088171 
-34.165699 16.848970 -14.001210 
-33.796730 16.714359 -15.368550 
-33.400421 16.550020 -16.707090 
-35.642731 14.835540 -12.756320 
-35.414921 15.966559 -11.260559 
-35.097649 15.901090 -12.678580 
-34.829441 17.064859 -11.216260 
-34.509281 16.962809 -12.614100 
-34.202572 18.157961 -11.184720 
-33.879162 18.022171 -12.564950 
-33.534988 17.871040 -13.931750 
-32.781281 17.500771 -16.599791 
-33.169292 17.699070 -15.278800 
-12.414711 -12.085100 39.058807 
-12.802300 -11.694389 39.050049 
-13.757560 -12.541150 38.416008 
-13.342260 -12.958350 38.425739 
-13.177461 -11.292790 39.040741 
-14.158879 -12.111711 38.406040 
-16.116600 -13.748489 37.002018 
-15.141911 -12.933370 37.725060 
-15.664730 -14.234119 37.012753 
-14.715080 -13.390970 37.735458 
-15.193600 -14.702510 37.024940 
-14.272070 -13.834270 37.746243 
25.565510 20.538071 25.064981 
26.150330 21.018009 23.910961 
25.435009 21.860809 23.910961 
24.866209 21.361990 25.064981 
26.707220 21.475019 22.731440 
25.976629 22.335789 22.731440 
25.218269 23.172270 22.731440 
24.692480 22.679821 23.910961 
24.140310 22.162649 25.064981 
22.713348 -28.004501 -20.104630 
23.571110 -27.247709 -20.121920 
23.968250 -27.689259 -18.865990 
23.096020 -28.453150 -18.845831 
24.396519 -26.453531 -20.141151 
24.807438 -26.887440 -18.888050 
25.191841 -27.296900 -17.612860 
24.338961 -28.103550 -17.588350 
23.452280 -28.872221 -17.565580 
-30.874569 2.757400 28.559071 
-30.776579 3.634090 28.524731 
-31.574881 3.880790 27.515211 
-31.678501 2.976290 27.547199 
-30.649460 4.504470 28.488199 
-31.441181 4.779830 27.480421 
-32.164440 5.080470 26.455629 
-32.306931 4.151830 26.487219 
-32.418159 3.218880 26.515501 
-36.686310 -13.174010 -11.621780 
-36.512932 -14.442860 -10.288430 
-36.988590 -13.352970 -10.223140 
-36.772190 -14.661330 -8.853140 
-37.251221 -13.556550 -8.791491 
-37.689388 -12.451640 -8.721770 
-37.424007 -12.264850 -10.148680 
-37.118439 -12.098700 -11.545711 
-36.992069 -14.894190 -7.391360 
-37.172310 -15.128050 -5.912150 
-37.656540 -13.987100 -5.863630 
-37.473961 -13.772130 -7.335440 
-38.098591 -12.840080 -5.810740 
-37.914330 -12.647300 -7.273080 
-38.496281 -11.682650 -5.757660 
-38.847481 -10.510460 -5.708570 
-38.663719 -10.368939 -7.146610 
-38.311470 -11.514610 -7.208670 
-38.438061 -10.219750 -8.575710 
-38.085419 -11.341180 -8.648380 
-38.170559 -10.071690 -9.989760 
-37.510311 -11.020480 -11.464490 
-37.818310 -11.172939 -10.069430 
8.861731 36.484322 -15.080000 
7.703520 36.694702 -15.085569 
7.829060 37.136189 -13.804589 
8.997590 36.923031 -13.795349 
6.540600 36.859428 -15.088530 
6.654300 37.302959 -13.809570 
6.767150 37.706791 -12.522611 
7.952080 37.538090 -12.515170 
9.129089 37.322300 -12.501579 
-7.139990 -23.933949 -33.657291 
-6.361680 -24.148729 -33.642410 
-6.631170 -25.177889 -32.816719 
-7.442260 -24.953949 -32.831982 
-6.893530 -26.186199 -31.967140 
-7.736520 -25.952808 -31.981699 
-8.571180 -25.691610 -31.995399 
-8.245330 -24.703579 -32.847038 
-7.910620 -23.694160 -33.672661 
-7.148470 -27.167770 -31.085018 
-8.022450 -26.924780 -31.098040 
-8.887810 -26.652729 -31.109701 
-10.588799 -26.022711 -31.129419 
-9.743580 -26.351931 -31.120119 
-10.211830 -25.087011 -32.020580 
-9.396590 -25.402920 -32.008331 
-9.823900 -24.124569 -32.876709 
-8.672710 -23.429560 -33.688519 
-9.039510 -24.427031 -32.861927 
-17.067650 30.143530 20.173050 
-15.983239 30.669128 20.177860 
-14.888530 31.159521 20.180691 
-15.092030 31.688440 18.916571 
-16.206619 31.192820 18.915350 
-17.308411 30.663021 18.913029 
-12.671371 32.041641 20.183599 
-13.784300 31.616449 20.182331 
-12.830811 32.581963 18.917810 
-13.966230 32.151077 18.917219 
-12.979960 33.088440 17.632540 
-14.298161 33.119671 16.330841 
-14.137200 32.652359 17.632801 
-15.465440 32.646420 16.332319 
-15.284031 32.184261 17.633169 
-16.619070 32.140030 16.333681 
-17.756599 31.599800 16.334660 
-17.538019 31.148430 17.632860 
-16.418341 31.683239 17.633310 
-14.450060 33.552410 15.013100 
-14.595300 33.950100 13.681900 
-15.801060 33.467670 13.685870 
-15.637160 33.074379 15.015830 
-14.736300 34.312279 12.339540 
-15.958981 33.825829 12.344590 
-18.350700 32.748749 12.352970 
-17.164749 33.304821 12.349151 
-18.162010 32.400249 13.692670 
-16.990910 32.951229 13.689539 
-17.964291 32.017170 15.020580 
-16.809469 32.562832 15.018400 
30.547180 12.226991 -24.897411 
29.396049 12.891510 -26.024681 
30.117350 13.218340 -24.897411 
28.945051 13.844290 -26.025240 
29.655272 14.194070 -24.898529 
30.333778 14.527750 -23.745621 
30.806450 13.530450 -23.743561 
31.246130 12.516460 -23.743479 
28.463129 14.780840 -26.026909 
27.950840 15.699700 -26.030260 
28.636629 16.090860 -24.908569 
29.161510 15.152220 -24.901878 
29.291800 16.461510 -23.763449 
29.828711 15.505659 -23.751600 
29.915668 16.810329 -22.597219 
30.464029 15.840250 -22.577929 
30.979879 14.844700 -22.568071 
31.911690 12.791960 -22.564220 
31.462629 13.827371 -22.564529 
27.026510 11.826989 -29.213850 
26.612780 12.703970 -29.215031 
27.427710 13.098780 -28.189430 
27.854811 12.195450 -28.189079 
25.701239 14.414850 -29.218121 
26.170858 13.566880 -29.216461 
26.486300 14.860740 -28.190701 
26.971371 13.987531 -28.189949 
27.235119 15.289350 -27.126190 
27.734270 14.392400 -27.124851 
28.203831 13.479040 -27.124180 
28.643270 12.550410 -27.123959 
31.911699 19.409121 16.496250 
32.542988 18.355791 16.496250 
32.966080 18.600060 15.191031 
32.326580 19.667099 15.191031 
33.353928 18.823971 13.869620 
32.706898 19.903589 13.869630 
32.024952 20.961512 13.869620 
31.652571 20.712700 15.191031 
31.246349 20.441278 16.496250 
33.706142 19.027309 12.533470 
34.022301 19.209841 11.183990 
33.362289 20.311110 11.183990 
33.052269 20.118340 12.533470 
32.666649 21.390259 11.183990 
32.363110 21.187450 12.533470 
31.936081 22.446110 11.183990 
30.881609 23.255251 12.533470 
31.639339 22.233469 12.533470 
30.558960 23.007669 13.869620 
31.308750 21.996592 13.869620 
30.203650 22.735041 15.191031 
30.547590 21.451160 16.496250 
30.944710 21.735729 15.191031 
16.767460 -23.757702 -30.236589 
18.077280 -23.933599 -29.232750 
17.304970 -24.510929 -29.231638 
18.618151 -24.641079 -28.193380 
17.823940 -25.236198 -28.192959 
17.006399 -25.803040 -28.189459 
16.510670 -25.060251 -29.226261 
15.997300 -24.288481 -30.228592 
19.139130 -25.319880 -27.122280 
18.804279 -26.595850 -26.019060 
18.323870 -25.931749 -27.121710 
17.942869 -27.194460 -26.017019 
17.483961 -26.515049 -27.119341 
17.058460 -27.763090 -26.013279 
16.153940 -28.300850 -26.006729 
15.740710 -27.590101 -27.101191 
16.622040 -27.068319 -27.113161 
15.310679 -26.843910 -28.161230 
16.167860 -26.339619 -28.179892 
14.864301 -26.065239 -29.187601 
14.402050 -25.257090 -30.181042 
15.208240 -24.789099 -30.211390 
15.696430 -25.579149 -29.212830 
-14.511560 -34.291660 -16.033661 
-13.182271 -34.246761 -17.357519 
-13.354360 -34.801441 -15.952169 
-12.025690 -34.771992 -17.219610 
-12.182731 -35.326530 -15.817221 
-12.326680 -35.906898 -14.344200 
-13.512120 -35.391251 -14.467799 
-14.682940 -34.881920 -14.545580 
-10.856140 -35.294998 -17.046339 
-9.674940 -35.793091 -16.859980 
-9.801380 -36.332260 -15.475189 
-10.997961 -35.844341 -15.650881 
-9.917291 -36.873341 -14.041310 
-11.127959 -36.407909 -14.195221 
-10.022540 -37.386471 -12.584270 
-10.117020 -37.841789 -11.130019 
-11.351980 -37.439720 -11.225320 
-11.246010 -36.951210 -12.709870 
-12.574750 -36.992840 -11.323310 
-12.457400 -36.475029 -12.834810 
-13.783970 -36.515160 -11.409431 
-14.978280 -36.020729 -11.469120 
-14.838580 -35.471909 -13.011440 
-13.655371 -35.975929 -12.941270 
-8.112300 19.353640 36.503529 
-8.761900 19.079741 36.503529 
-8.500540 20.343872 35.743420 
-9.186640 20.058069 35.743301 
-9.868530 19.746731 35.740849 
-9.405869 18.782061 36.501850 
-8.875470 21.308180 34.944550 
-9.998600 21.936970 34.106567 
-9.598120 21.010481 34.944061 
-10.756710 21.597700 34.101608 
-10.318160 20.685438 34.940540 
-11.519541 21.223221 34.089661 
-12.292860 20.807440 34.067471 
-11.770261 19.932430 34.913078 
-11.040550 20.327841 34.931149 
-11.235370 19.030979 35.719860 
-10.550120 19.405741 35.733791 
-10.688110 18.103811 36.486752 
-10.047010 18.457710 36.496819 
-12.803210 21.655340 33.184082 
-11.988371 22.091070 33.210052 
-11.186100 22.483002 33.224758 
-11.602449 23.343220 32.311611 
-12.442300 22.934170 32.294323 
-13.295979 22.479551 32.265118 
-10.390320 22.837570 33.231632 
-10.770320 23.713160 32.320450 
-11.135611 24.564650 31.374300 
-12.001861 24.180210 31.363791 
-13.765830 23.283529 31.312799 
-12.876571 23.755301 31.344440 
-35.073780 8.164600 19.838379 
-34.406132 8.867949 20.975430 
-34.791328 9.250180 19.826839 
-34.096821 9.923200 20.960911 
-34.470181 10.330690 19.814970 
-34.814999 10.717510 18.643070 
-35.147430 9.613080 18.652739 
-35.440899 8.503050 18.662111 
-33.748131 10.972800 20.947571 
-33.708920 12.471870 19.795601 
-34.109608 11.404981 19.804111 
-34.031330 12.904281 18.627810 
-34.443138 11.815020 18.634350 
-34.336601 13.302300 17.429699 
-34.635040 13.655170 16.197521 
-35.067352 12.525450 16.200661 
-34.758957 12.192110 17.434469 
-35.460342 11.385619 16.205790 
-35.141621 11.072780 17.441309 
-35.814110 10.237091 16.211950 
-35.789021 8.812270 17.456749 
-35.484871 9.945700 17.449110 
35.560291 18.570599 -5.520840 
34.920101 19.713940 -5.530790 
35.051651 19.798420 -4.126590 
35.694260 18.645620 -4.122610 
35.145718 19.857000 -2.722870 
35.790051 18.698530 -2.721880 
36.396191 17.519199 -2.721380 
36.298771 17.470730 -4.120620 
36.162540 17.402700 -5.515860 
35.202229 19.891050 -1.319470 
35.866798 18.740120 0.083780 
35.847591 18.729851 -1.319470 
36.474239 17.557829 0.083780 
36.454712 17.548201 -1.319470 
37.042698 16.356279 0.083780 
37.571491 15.136680 0.083780 
37.551369 15.128340 -1.319470 
37.022861 16.347290 -1.319470 
37.491089 15.103370 -2.721210 
36.963440 16.320360 -2.721210 
37.390739 15.061810 -4.119960 
36.726139 16.212851 -5.514200 
36.864502 16.275541 -4.119960 
34.301971 19.305021 -9.732360 
34.930832 18.212730 -9.686650 
34.545021 19.465200 -8.337370 
35.178329 18.353420 -8.305050 
35.774109 17.207750 -8.288830 
35.522419 17.081100 -9.663580 
34.751141 19.602179 -6.935610 
35.388229 18.472950 -6.915710 
35.987572 17.314989 -6.905760 
36.548439 16.132330 -6.902440 
36.331661 16.033970 -8.283360 
36.076038 15.917740 -9.655641 
12.684179 30.089979 -24.897411 
12.379980 29.359520 -26.024681 
11.405640 29.740410 -26.024681 
11.686891 30.479250 -24.897411 
10.423490 30.084541 -26.024681 
10.681829 30.830610 -24.897411 
10.927989 31.544001 -23.743429 
11.955190 31.185410 -23.743502 
12.974620 30.787830 -23.743639 
9.436410 30.389841 -26.024681 
8.659579 31.411779 -24.897411 
9.671790 31.142120 -24.897411 
8.861300 32.136631 -23.743401 
9.895780 31.861700 -23.743401 
9.052350 32.827881 -22.563900 
10.309030 33.199379 -21.360149 
10.108239 32.547741 -22.563900 
11.383080 32.869370 -21.360390 
11.161810 32.223858 -22.563990 
12.451989 32.496300 -21.361101 
13.250990 31.452110 -22.564850 
12.210309 31.858051 -22.564280 
2.462820 -24.839338 -33.575619 
3.402650 -25.784281 -32.713131 
2.564870 -25.879108 -32.710129 
3.534950 -26.798679 -31.824591 
2.664210 -26.900721 -31.828461 
1.790710 -26.974918 -31.833839 
1.724420 -25.947470 -32.709240 
1.656320 -24.902010 -33.568901 
3.663510 -27.791040 -30.915649 
2.854380 -28.872559 -29.998041 
2.760750 -27.899950 -30.925970 
1.917590 -28.956671 -30.012901 
1.855120 -27.979580 -30.936972 
0.978820 -29.010180 -30.027658 
0.039060 -28.051399 -30.961649 
0.947570 -28.030041 -30.948801 
0.039060 -27.040218 -31.849939 
0.915350 -27.021389 -31.840931 
0.039060 -26.005348 -32.714901 
0.848120 -24.939640 -33.564930 
0.882180 -25.989511 -32.710739 
21.720049 -28.770658 20.316010 
21.363152 -28.290541 21.535252 
20.454979 -28.947689 21.540970 
20.794088 -29.411819 20.327429 
19.518791 -29.560070 21.546782 
19.839899 -30.002640 20.337231 
20.130880 -30.394659 19.109930 
21.102850 -29.831650 19.095591 
22.046480 -29.212698 19.077341 
18.557850 -30.123980 21.550751 
18.860939 -30.545349 20.339689 
19.134260 -30.911739 19.110029 
19.601160 -31.571692 16.591181 
19.380199 -31.246181 17.860830 
20.631750 -31.096460 16.596569 
20.394039 -30.753479 17.863510 
21.638170 -30.581100 16.574579 
22.616228 -30.001490 16.543900 
22.344521 -29.621401 17.819780 
21.383469 -30.217850 17.844841 
-20.063591 -14.815281 -33.941250 
-19.581560 -15.465140 -33.940971 
-20.407669 -16.099159 -33.068783 
-20.910000 -15.421849 -33.068890 
-21.211901 -16.716311 -32.160950 
-21.733980 -16.012321 -32.160980 
-22.232679 -15.291600 -32.160992 
-21.389830 -14.728431 -33.068951 
-20.524031 -14.149930 -33.941399 
-21.993380 -17.315981 -31.218519 
-22.751278 -17.897511 -30.242529 
-23.311180 -17.142500 -30.242540 
-22.534658 -16.586071 -31.218519 
-23.845999 -16.369570 -30.242529 
-23.051701 -15.838849 -31.218519 
-24.355240 -15.579580 -30.242540 
-23.544010 -15.075130 -31.218519 
-22.707520 -14.554980 -32.160999 
-20.962450 -13.469840 -33.941441 
-21.846699 -14.019700 -33.068970 
20.485771 15.278470 33.236538 
20.141689 13.994590 34.109032 
20.988100 14.601089 33.236538 
20.602131 13.329161 34.109032 
21.467930 13.907649 33.236538 
22.310780 14.470810 32.328552 
21.812078 15.191530 32.328552 
21.289989 15.895539 32.328552 
21.040550 12.649050 34.109032 
21.456520 11.954989 34.109032 
22.358292 12.475620 33.236538 
21.924801 13.198900 33.236538 
23.236160 12.982450 32.328552 
22.785622 13.734179 32.328552 
24.089201 13.474960 31.386061 
24.916510 13.952600 30.410070 
24.433342 14.758790 30.410070 
23.622110 14.254331 31.386061 
23.924101 15.548771 30.410070 
23.129799 15.018049 31.386061 
23.389280 16.321699 30.410070 
22.071482 16.495180 31.386070 
22.612761 15.765270 31.386061 
22.737200 -31.992701 -10.859710 
23.923780 -31.497740 -9.505130 
22.868979 -32.232079 -9.486350 
24.037081 -31.701231 -8.124121 
22.969261 -32.438702 -8.105330 
21.869490 -33.156891 -8.094790 
21.781731 -32.946220 -9.475090 
21.664030 -32.701538 -10.848431 
24.120941 -31.873091 -6.737310 
23.089230 -32.751099 -5.331990 
23.041502 -32.611919 -6.719560 
21.968559 -33.468922 -5.327140 
21.930658 -33.331711 -6.710980 
20.822840 -34.160488 -5.328690 
19.658030 -34.819191 -5.332750 
19.638260 -34.685841 -6.707710 
20.794279 -34.025379 -6.708160 
19.597570 -34.507870 -8.086470 
20.743639 -33.848900 -8.089500 
19.533079 -34.289051 -9.464410 
19.441900 -34.033142 -10.836930 
20.563700 -33.383469 -10.841650 
20.667820 -33.633949 -9.468670 
3.197760 -32.407700 -25.946859 
4.348820 -33.052052 -24.819981 
3.275370 -33.179291 -24.829851 
4.447560 -33.776020 -23.666040 
3.349520 -33.904209 -23.672640 
2.247970 -33.996220 -23.677111 
2.198500 -33.270592 -24.836700 
2.146710 -32.498348 -25.956409 
4.541580 -34.456211 -22.477039 
3.487100 -35.225662 -21.259119 
3.420120 -34.585381 -22.480610 
2.339780 -35.319561 -21.260172 
2.295080 -34.678230 -22.483110 
1.190030 -35.377331 -21.261461 
1.167670 -34.735161 -22.485121 
1.144100 -34.052570 -23.680292 
1.093440 -32.554199 -25.963631 
1.119350 -33.326572 -24.841589 
-21.869841 3.960800 35.912270 
-21.681540 4.631580 35.910019 
-21.466261 5.300740 35.910290 
-22.689550 5.489670 35.065800 
-22.910440 4.791330 35.068298 
-23.102570 4.091650 35.073631 
-20.953590 6.633250 35.919422 
-21.223719 5.968040 35.913342 
-22.159300 6.882320 35.070889 
-22.439360 6.186670 35.066540 
-23.344221 7.123970 34.184269 
-24.503981 7.359350 33.261639 
-24.797899 6.610070 33.263351 
-23.632370 6.400120 34.182449 
-25.056511 5.861900 33.270309 
-23.888090 5.675970 34.184959 
-25.281561 5.113700 33.281521 
-24.306351 4.225070 34.200550 
-24.112410 4.951090 34.191200 
-7.719920 38.041519 4.117710 
-6.452950 38.350700 4.114370 
-6.523470 38.453041 2.730070 
-7.796610 38.143059 2.735770 
-5.196500 38.632469 4.111460 
-5.259720 38.735798 2.723810 
-5.377400 38.816639 -0.057220 
-5.320480 38.797230 1.333740 
-6.651670 38.533722 -0.044140 
-6.590210 38.514091 1.343460 
-7.932980 38.223881 -0.033610 
-7.868130 38.203892 1.351590 
11.984381 38.092201 -5.726970 
10.828429 38.572552 -4.374000 
12.020411 38.238140 -4.324550 
10.836329 38.677311 -2.952210 
12.033230 38.341949 -2.905720 
13.229229 37.954521 -2.858580 
13.210381 37.851749 -4.273950 
13.168779 37.707478 -5.675190 
10.825740 38.739502 -1.518310 
10.801690 38.759251 -0.078820 
12.007299 38.423470 -0.042640 
12.027349 38.403698 -1.476440 
13.214540 38.035641 -0.006950 
13.229310 38.015800 -1.434450 
14.421279 37.598869 0.025290 
15.625360 37.116268 0.051100 
15.628771 37.096401 -1.364580 
14.430241 37.578979 -1.395960 
15.615780 37.036251 -2.778710 
14.423651 37.518211 -2.814870 
15.583700 36.935860 -4.187120 
15.529860 36.795261 -5.585660 
14.350520 37.274109 -5.626530 
14.398180 37.416588 -4.226660 
20.347321 4.462040 -35.747089 
21.493071 4.714830 -35.048561 
21.662970 3.992800 -35.062439 
20.511190 3.775640 -35.762619 
22.638149 4.962740 -34.331841 
22.812910 4.205780 -34.343140 
22.966589 3.443910 -34.358448 
21.814201 3.266090 -35.081421 
20.658491 3.084790 -35.784088 
-27.005840 -29.060522 9.672100 
-27.197680 -29.294451 8.319820 
-26.231579 -30.176170 8.323680 
-26.046551 -29.937469 9.676940 
-27.360371 -29.496210 6.958130 
-26.388510 -30.382700 6.961580 
-25.388420 -31.235891 6.964360 
-25.237440 -31.024830 8.326910 
-25.059408 -30.781580 9.681120 
0.039060 -38.055271 -14.837411 
1.266920 -37.571148 -16.153690 
1.282900 -38.025730 -14.832371 
2.493110 -37.506882 -16.151400 
2.524690 -37.958660 -14.828850 
2.552170 -38.369141 -13.495640 
1.296710 -38.438950 -13.500670 
0.038640 -38.470901 -13.507190 
3.715980 -37.405449 -16.150591 
4.993980 -37.712841 -14.827029 
3.762400 -37.854301 -14.827020 
5.045470 -38.117798 -13.491330 
3.802570 -38.261932 -13.492419 
5.086460 -38.479580 -12.149771 
3.857290 -38.943058 -10.812930 
3.834780 -38.625729 -12.152490 
2.589490 -39.053371 -10.820009 
2.574210 -38.735100 -12.157460 
1.314410 -39.126251 -10.828580 
0.034870 -39.160999 -10.838031 
0.037380 -38.840900 -12.172250 
1.307500 -38.807053 -12.164210 
-18.768391 17.204359 -33.068970 
-19.336861 16.581400 -33.068970 
-20.098640 17.249399 -32.160999 
-19.506849 17.895891 -32.160999 
-19.883291 15.938999 -33.068970 
-20.666889 16.582060 -32.160999 
-21.428329 17.206930 -31.218519 
-20.838850 17.898470 -31.218519 
-20.224258 18.567701 -31.218519 
13.101259 -17.434229 36.503529 
12.411390 -16.535669 37.223980 
11.876240 -16.931820 37.223980 
12.536909 -17.852461 36.503529 
11.327390 -17.310249 37.223980 
11.958489 -18.251970 36.503529 
12.578091 -19.177769 35.743538 
13.185889 -18.757540 35.743538 
13.779140 -18.317610 35.743538 
10.764851 -17.670589 37.223980 
11.366120 -18.632370 36.503529 
11.956030 -19.577900 35.743538 
13.098001 -21.411860 34.109032 
12.533640 -20.505091 34.945038 
13.778351 -20.973452 34.109032 
13.185081 -20.085609 34.945038 
14.443501 -20.513020 34.109032 
15.092700 -20.031000 34.109032 
14.443480 -19.183849 34.945038 
13.821860 -19.645060 34.945038 
-30.469481 -21.395090 -16.829760 
-29.737949 -22.464291 -16.782490 
-30.125549 -22.655710 -15.537810 
-30.866600 -21.564281 -15.590461 
-30.480860 -22.847809 -14.262429 
-31.230640 -21.737040 -14.319390 
-31.946831 -20.611679 -14.370980 
-31.574459 -20.458441 -15.637780 
-31.168251 -20.311640 -16.871809 
-30.803511 -23.046000 -12.954490 
-31.561211 -21.920509 -13.013750 
-32.284981 -20.780251 -13.067599 
-32.974133 -19.635960 -13.110560 
-32.628769 -19.481421 -14.412320 
-31.833590 -19.220640 -16.905430 
-32.248459 -19.346430 -15.675730 
-4.672780 31.578060 25.040171 
-4.721790 32.292599 23.872049 
-5.780540 32.078331 23.867849 
-5.710940 31.369780 25.036709 
-4.760240 32.973919 22.676060 
-5.838480 32.753712 22.671200 
-6.918650 32.505329 22.666691 
-6.840110 31.836090 23.863758 
-6.748930 31.133808 25.033150 
34.911610 7.724990 -20.133400 
35.502289 7.862910 -18.885000 
35.738640 6.697370 -18.885000 
35.144329 6.578880 -20.133400 
36.055309 7.991970 -17.616310 
36.295208 6.808250 -17.616301 
36.488850 5.616860 -17.616301 
35.929478 5.524280 -18.885000 
35.332352 5.425340 -20.133400 
-18.784559 -23.226559 29.315960 
-19.541710 -22.604288 29.299480 
-20.111731 -23.225250 28.247791 
-19.340580 -23.876070 28.261051 
-20.296141 -21.976130 29.273802 
-20.875399 -22.563560 28.227320 
-21.445770 -23.140961 27.144110 
-20.670799 -23.832350 27.160631 
-19.882750 -24.507061 27.172352 
-26.750368 25.543030 -15.287339 
-27.691151 24.638969 -15.262441 
-28.032278 24.935350 -13.940120 
-27.088612 25.850639 -13.963130 
-28.590691 23.700039 -15.238260 
-28.935110 23.984850 -13.917621 
-29.278400 24.243938 -12.573690 
-28.376190 25.205250 -12.593679 
-27.433838 26.131069 -12.613900 
1.131870 -11.438340 -41.308750 
1.241600 -12.566010 -40.916462 
1.352630 -13.705170 -40.486969 
0.915890 -13.741780 -40.486687 
0.841910 -12.600020 -40.916462 
0.768810 -11.469460 -41.308750 
1.464770 -14.851240 -40.013260 
0.990610 -14.890090 -40.012089 
0.515160 -14.913390 -40.011002 
0.477810 -13.763980 -40.486412 
0.404300 -11.488561 -41.308750 
0.440830 -12.620820 -40.916462 
-36.012482 -0.578730 19.788719 
-36.019772 0.517940 19.810270 
-35.991810 1.611740 19.829479 
-36.416019 1.797370 18.638981 
-36.451679 0.677830 18.616711 
-36.451221 -0.444340 18.592100 
-35.829823 3.796230 19.854759 
-35.928520 2.704040 19.844820 
-36.236671 4.033530 18.669889 
-36.344330 2.915530 18.657249 
-36.623859 4.243750 17.458700 
-37.127110 3.248370 16.201241 
-36.740250 3.100420 17.444189 
-37.214489 2.080550 16.179909 
-36.820091 1.957010 17.423820 
-37.264198 0.911880 16.154400 
-37.275879 -0.258580 16.126480 
-36.869160 -0.334490 17.372490 
-36.863152 0.812410 17.399351 
-37.680931 -0.225990 14.850611 
-37.664890 0.966490 14.878100 
-37.609699 2.157880 14.903131 
-37.997688 2.200120 13.599430 
-38.057270 0.987300 13.576130 
-38.076550 -0.225810 13.550349 
-37.515720 3.348990 14.924030 
-37.898140 3.413240 13.618760 
-38.266399 3.452080 12.291619 
-38.370472 2.218350 12.274770 
-38.454960 -0.247070 12.231120 
-38.433411 0.985410 12.254190 
4.601450 32.076469 -24.897411 
3.481950 31.380260 -26.024681 
3.576710 32.151188 -24.897411 
2.475890 31.421329 -26.024681 
2.547050 32.192139 -24.897411 
2.613570 32.930008 -23.743401 
3.665770 32.889172 -23.743401 
4.713080 32.813648 -23.743401 
1.465590 31.429979 -26.024681 
0.451790 31.406620 -26.024681 
0.475900 32.174389 -24.897411 
1.513200 32.199741 -24.897411 
0.497580 32.909241 -23.743401 
1.557260 32.936562 -23.743401 
0.516880 33.610321 -22.563900 
1.597810 33.639580 -22.563900 
2.675500 33.634048 -22.563900 
4.817990 33.517002 -22.563900 
3.749150 33.593319 -22.563900 
3.167490 28.878761 -29.226721 
2.239260 28.920200 -29.224760 
2.320750 29.784451 -28.191801 
3.276270 29.743170 -28.192289 
0.371180 28.914371 -29.221279 
1.306990 28.931931 -29.222889 
0.397800 29.775711 -28.190929 
1.361050 29.795170 -28.191339 
0.425210 30.606760 -27.123959 
1.414390 30.628149 -27.123959 
2.400040 30.618460 -27.123959 
3.381450 30.577299 -27.123959 
-3.699870 36.546631 15.029580 
-2.554220 36.258541 16.362221 
-2.538360 36.734669 15.039090 
-1.408840 36.407421 16.372190 
-1.381400 36.886879 15.049840 
-1.358620 37.327381 13.713209 
-2.526130 37.172100 13.701730 
-3.698200 36.980217 13.691610 
-0.267560 36.519939 16.383150 
0.870030 36.594818 16.394970 
0.920670 37.078671 15.074410 
-0.228540 37.001980 15.061660 
0.964850 37.523079 13.739420 
-0.195130 37.444790 13.725830 
1.000440 37.927261 12.392230 
1.025310 38.290409 11.035100 
-0.155040 38.209450 11.020640 
-0.169800 37.847549 12.378030 
-1.338730 38.088100 11.007240 
-1.343420 37.728058 12.364830 
-2.526340 37.927528 10.995160 
-3.703070 37.374580 12.342330 
-2.520980 37.570000 12.352850 
28.535500 2.404930 -30.194349 
29.384830 3.459400 -29.213919 
29.472809 2.495540 -29.214750 
30.276711 3.575920 -28.189089 
30.363979 2.583030 -28.189299 
30.411949 1.586990 -28.189529 
29.522921 1.528610 -29.215660 
28.589010 1.468150 -30.196609 
31.125910 3.688170 -27.123959 
32.024712 2.748320 -26.024681 
31.213200 2.667330 -27.123959 
32.070969 1.697280 -26.024681 
31.260010 1.643230 -27.123959 
32.078472 0.644000 -26.024681 
32.050022 -0.410380 -26.024681 
31.242849 -0.410380 -27.123959 
31.268999 0.616970 -27.123959 
30.399931 -0.410380 -28.190010 
30.423109 0.588830 -28.189772 
29.518070 -0.410380 -29.217588 
28.594110 -0.410380 -30.201458 
28.607990 0.529380 -30.199001 
29.537289 0.559620 -29.216610 
-22.359951 1.265640 35.941227 
-22.418539 0.589700 35.952030 
-23.594250 1.280500 35.116020 
-23.650461 0.574950 35.130100 
-23.680931 -0.131280 35.144962 
-22.452341 -0.086580 35.963779 
-24.794439 1.305360 34.258640 
-26.003561 0.583070 33.393421 
-24.847580 0.571520 34.276241 
-26.026190 -0.179560 33.414799 
-24.874260 -0.163470 34.294369 
-26.022369 -0.943360 33.435883 
-25.992579 -1.707750 33.456272 
-24.850161 -1.635210 34.330990 
-24.874960 -0.899180 34.312710 
-23.666439 -1.544370 35.176128 
-23.686111 -0.837840 35.160378 
-22.447060 -1.438760 35.989330 
-22.461710 -0.762860 35.976269 
-27.112049 0.613260 32.484562 
-28.168749 0.665560 31.551111 
-28.183739 -0.149460 31.577990 
-27.130598 -0.175990 32.509060 
-29.169340 0.743420 30.594540 
-29.181841 -0.096710 30.622448 
-29.126270 -1.782830 30.669260 
-29.167381 -0.939230 30.647549 
-28.133640 -1.784510 31.625309 
-28.171900 -0.966530 31.602919 
-27.088070 -1.758500 32.554352 
-27.122459 -0.966860 32.532490 
-27.191469 -22.354109 21.237850 
-28.457001 -21.848820 19.969709 
-27.685181 -22.748371 20.007210 
-28.924961 -22.202188 18.726631 
-28.149130 -23.125469 18.759840 
-27.360289 -24.040142 18.783669 
-26.905020 -23.643930 20.033291 
-26.420889 -23.229151 21.265770 
-29.362520 -22.540140 17.468191 
-29.769991 -22.862949 16.195219 
-28.987110 -23.827520 16.219389 
-28.583158 -23.485250 17.496861 
-28.182659 -24.775181 16.238060 
-27.786301 -24.417360 17.518179 
-27.354401 -25.701679 16.252779 
-26.126162 -26.220871 17.547380 
-26.968451 -25.331030 17.534300 
-25.724239 -25.816679 18.814560 
-26.553600 -24.939449 18.800970 
-25.294760 -25.390699 20.065290 
-25.639000 -24.095421 21.284512 
-26.110300 -24.527409 20.051479 
2.157530 39.358940 -5.806210 
0.870520 39.313789 -5.765450 
0.901680 39.466961 -4.379750 
2.187570 39.512020 -4.417140 
0.930040 39.576881 -2.980090 
2.210580 39.621639 -3.011540 
3.484980 39.622829 -3.038220 
3.468110 39.513699 -4.450070 
3.439760 39.360939 -5.842790 
0.955080 39.643379 -1.569770 
2.238430 39.710030 -0.167990 
2.227290 39.687679 -1.593720 
3.493220 39.710049 -0.178970 
3.492610 39.688290 -1.612700 
4.738220 39.666229 -0.183260 
5.971010 39.578472 -0.179060 
5.988490 39.557800 -1.624630 
4.747510 39.645050 -1.623930 
5.996560 39.493622 -3.062110 
4.748540 39.580231 -3.056340 
5.990350 39.385799 -4.484160 
4.710980 39.319481 -5.870200 
4.737600 39.471718 -4.473940 
4.530330 38.602367 -9.908310 
3.283390 38.643211 -9.886660 
3.344670 38.925140 -8.557770 
4.603490 38.884190 -8.583220 
0.765790 38.597870 -9.825200 
2.027100 38.641621 -9.857910 
0.801940 38.878769 -8.486610 
2.075720 38.923229 -8.524220 
0.837060 39.117569 -7.133890 
2.119720 39.162498 -7.174450 
3.397700 39.164558 -7.210920 
4.664990 39.123432 -7.238570 
-21.843578 23.052450 -26.050001 
-23.114979 22.903599 -24.943111 
-22.289541 23.623680 -24.948051 
-23.539801 23.433722 -23.819189 
-22.683151 24.168829 -23.827332 
-21.796200 24.868269 -23.834431 
-21.433321 24.309011 -24.952330 
-21.016819 23.723139 -26.052141 
-23.920149 23.937990 -22.675089 
-23.341980 25.179199 -21.525961 
-23.031570 24.687469 -22.686939 
-22.392281 25.905190 -21.540020 
-22.113270 25.400490 -22.697361 
-21.421061 26.596701 -21.551399 
-20.213739 26.727491 -22.711361 
-21.171801 26.079630 -22.705709 
-19.953650 26.169989 -23.843889 
-20.884521 25.534521 -23.840080 
-19.647461 25.584490 -24.958000 
-19.286751 24.971540 -26.054968 
-20.163191 24.362162 -26.053829 
-20.551041 24.961861 -24.955721 
34.979740 0.740590 21.527679 
35.616970 0.761710 20.300940 
36.217381 0.781580 19.052561 
36.213951 1.972290 19.052561 
35.613159 1.932570 20.300940 
34.975483 1.890340 21.527679 
37.304607 0.817480 16.496250 
36.780201 0.800180 17.783880 
37.301701 2.044040 16.496250 
36.777061 2.009460 17.783880 
37.253498 3.268010 16.496250 
37.157131 4.488090 16.496250 
36.634239 4.419080 17.783880 
36.729359 3.216190 17.783880 
36.072830 4.344900 19.052561 
36.166710 3.160480 19.052561 
35.473679 4.265620 20.300940 
34.837528 4.181350 21.527679 
34.929020 3.037670 21.527679 
35.566341 3.100950 20.300940 
-3.075080 24.891989 33.236538 
-2.194350 24.011160 34.109032 
-2.250330 25.001360 33.236538 
-1.401480 24.090809 34.109032 
-1.425860 25.086159 33.236538 
-1.449130 26.054670 32.328552 
-2.304610 25.965139 32.328537 
-3.160600 25.850319 32.328522 
-0.609220 24.146391 34.109032 
0.181700 24.177740 34.109032 
0.219490 25.181219 33.236538 
-0.602360 25.146179 33.236538 
0.257550 26.156841 32.328552 
-0.594850 26.118660 32.328552 
0.295040 27.104380 31.386070 
0.331080 28.023630 30.410070 
-0.580370 27.979969 30.410080 
-0.587320 27.063400 31.386070 
-1.493870 27.908772 30.410040 
-1.471670 26.995739 31.386061 
-2.408720 27.810421 30.409948 
-3.243660 26.781710 31.385939 
-2.357340 26.901741 31.386021 
38.951382 3.435410 -11.016390 
39.171219 4.753170 -9.655010 
39.273239 3.467070 -9.655010 
39.450199 4.789800 -8.283200 
39.553120 3.494570 -8.283200 
39.604347 2.195210 -8.283200 
39.324032 2.176860 -9.655010 
39.001671 2.155740 -11.016390 
39.686939 4.820860 -6.902440 
39.985451 3.537010 -5.514200 
39.790638 3.517890 -6.902440 
40.037422 2.223530 -5.514200 
39.842270 2.210780 -6.902440 
40.040112 0.907270 -5.514200 
39.996658 -0.410380 -5.514200 
39.801682 -0.410380 -6.902440 
39.844921 0.900890 -6.902440 
39.563988 -0.410380 -8.283200 
39.606949 0.893100 -8.283200 
39.283993 -0.410380 -9.655010 
38.962059 -0.410380 -11.016390 
39.004238 0.873360 -11.016390 
39.326603 0.883920 -9.655010 
-17.528900 -14.017080 36.231468 
-17.073040 -14.547761 36.241108 
-18.483860 -14.763980 35.434071 
-18.004330 -15.322339 35.444309 
-17.500959 -15.860280 35.457111 
-16.596380 -15.060881 36.252228 
-19.410431 -15.481669 34.600552 
-20.303909 -16.163450 33.731659 
-19.764050 -16.762119 33.750988 
-18.903629 -16.063400 34.613617 
-19.192659 -17.333090 33.775879 
-18.369410 -16.621340 34.630589 
-18.587730 -17.873091 33.807621 
-17.202421 -17.644720 34.685570 
-17.803699 -17.150209 34.653790 
-16.406740 -16.854399 35.499470 
-16.969759 -16.372679 35.474731 
-15.570060 -16.019520 36.285339 
-16.096279 -15.552711 36.266438 
-24.054001 31.419498 -4.201970 
-23.877689 31.295240 -5.617140 
-24.959681 30.537701 -5.621030 
-25.138300 30.658680 -4.206680 
-26.017681 29.742479 -5.622950 
-26.195820 29.859850 -4.210260 
-26.304960 29.943230 -2.805100 
-25.246861 30.744560 -2.800300 
-24.159420 31.507620 -2.795150 
-27.046070 28.907001 -5.623170 
-28.212809 28.138130 -4.213500 
-27.222130 29.020510 -4.212570 
-28.320639 28.216021 -2.811450 
-27.330599 29.101200 -2.809010 
-28.369219 28.262529 -1.415090 
-28.365059 28.277868 -0.023710 
-27.373692 29.165089 -0.019680 
-27.378710 29.149321 -1.411650 
-26.348080 30.009029 -0.013600 
-26.353071 29.992880 -1.406530 
-25.288889 30.812080 -0.006950 
-24.196751 31.576620 -0.001180 
-24.203739 31.559898 -1.395340 
-25.294130 30.795610 -1.400760 
7.599950 19.672070 -36.331612 
6.941350 19.908319 -36.326801 
7.297990 20.962450 -35.569729 
7.991390 20.714090 -35.573269 
6.277980 20.122421 -36.317551 
6.599460 21.187241 -35.562290 
6.915320 22.231190 -34.767681 
7.648090 21.996119 -34.773411 
8.375441 21.735939 -34.775928 
-37.430832 13.831330 4.103600 
-37.565243 13.869590 2.721760 
-38.012112 12.620400 2.721860 
-37.876740 12.585489 4.103800 
-37.703991 13.900240 -0.049790 
-37.657742 13.892570 1.337330 
-38.150520 12.648371 -0.050230 
-38.104820 12.641371 1.337210 
-38.557739 11.382470 -0.049930 
-38.512310 11.376149 1.337770 
-38.419441 11.357210 2.722690 
-38.283390 11.325689 4.104840 
-24.081120 -9.488960 -33.068970 
-25.029819 -9.846040 -32.160999 
-25.324991 -9.020620 -32.160999 
-24.365120 -8.694780 -33.068970 
-26.845770 -10.529539 -30.242540 
-25.951700 -10.193029 -31.218519 
-27.162312 -9.644330 -30.242529 
-26.257719 -9.337260 -31.218519 
-27.449780 -8.749210 -30.242540 
-26.535631 -8.471900 -31.218519 
-25.593040 -8.185960 -32.160999 
-24.623020 -7.891700 -33.068970 
10.407869 -33.829929 19.883619 
10.561410 -34.300892 18.542521 
11.681629 -33.919201 18.595350 
11.514879 -33.464111 19.954731 
10.695950 -34.744869 17.183460 
11.827721 -34.350819 17.216629 
12.946879 -33.936989 17.274839 
12.789030 -33.521530 18.666441 
12.609071 -33.085419 20.037342 
21.313210 2.390230 36.501621 
20.190479 2.242550 37.219490 
20.266321 1.581800 37.217709 
21.393181 1.692680 36.500790 
20.320210 0.918930 37.214661 
21.449730 0.992900 36.498878 
22.559031 1.065670 35.741520 
22.500351 1.801740 35.742649 
22.416649 2.535480 35.742962 
20.351921 0.254630 37.209381 
21.482420 0.291630 36.494980 
22.592089 0.328030 35.738873 
24.734470 0.398680 34.107830 
23.677311 0.363750 34.942619 
24.703491 1.206880 34.108620 
23.644751 1.137050 34.944221 
24.643358 2.013380 34.108929 
23.498070 2.677950 34.944939 
23.584749 1.908730 34.944832 
-32.411922 9.626990 24.242931 
-32.904869 10.079100 23.166981 
-33.228161 9.083270 23.186390 
-32.722099 8.659740 24.265560 
-33.348412 10.529270 22.068520 
-33.684608 9.505910 22.084780 
-33.981369 8.477370 22.102499 
-33.511860 8.082740 23.207691 
-32.992439 7.688400 24.290609 
10.498010 33.815781 -20.133400 
10.676950 34.396309 -18.886921 
11.788589 34.054218 -18.887110 
11.591610 33.479668 -20.133869 
10.847589 34.940342 -17.623980 
11.975200 34.592472 -17.622740 
13.097610 34.198021 -17.623541 
12.895010 33.666637 -18.888809 
12.680020 33.099277 -20.135309 
6.204480 -20.944010 36.503529 
6.548870 -22.009430 35.743538 
7.255970 -21.783560 35.743538 
6.878720 -20.729288 36.503529 
6.882950 -23.054220 34.945038 
7.622560 -22.817430 34.945038 
8.355030 -22.556679 34.945038 
7.956950 -21.534842 35.743538 
7.547940 -20.492840 36.503521 
-36.344322 -10.710911 -15.449130 
-35.963848 -11.777149 -15.513249 
-36.387897 -11.859241 -14.226890 
-36.772770 -10.792080 -14.154461 
-35.544888 -12.836551 -15.576180 
-35.964027 -12.921761 -14.296221 
-36.344639 -13.032260 -12.978780 
-36.772923 -11.964960 -12.904750 
-37.161621 -10.894400 -12.826210 
-3.787300 -16.766550 -38.864761 
-3.248720 -16.883650 -38.866241 
-3.475960 -17.997490 -38.209820 
-4.052030 -17.872240 -38.208271 
-2.706530 -16.983580 -38.868679 
-2.896080 -18.104549 -38.212780 
-3.271770 -20.323151 -36.774162 
-3.084790 -19.218010 -37.511360 
-3.926130 -20.203259 -36.772709 
-3.702110 -19.104219 -37.508591 
-4.576260 -20.063049 -36.773300 
-4.315420 -18.971199 -37.507610 
-26.078169 19.690880 -24.920340 
-26.129068 18.362381 -26.033239 
-26.742620 18.823469 -24.914530 
-26.738680 17.499010 -26.033791 
-27.376530 17.940710 -24.913960 
-27.974442 18.362940 -23.770559 
-27.314629 19.263910 -23.772730 
-26.622591 20.150881 -23.782110 
-27.318201 16.623819 -26.041191 
-27.866520 15.741520 -26.058868 
-28.546091 16.155401 -24.949081 
-27.978239 17.049160 -24.923761 
-29.188389 16.553541 -23.816130 
-28.599770 17.456610 -23.782681 
-29.788530 16.932810 -22.660101 
-29.178610 17.844650 -22.619249 
-28.529461 18.765009 -22.605268 
-27.124060 20.588779 -22.622440 
-27.843721 19.683270 -22.609291 
-24.062651 16.860189 -29.234020 
-24.614689 16.063181 -29.234718 
-25.354919 16.559790 -28.195961 
-24.785309 17.380180 -28.194981 
-25.639030 14.422801 -29.240980 
-25.140318 15.250159 -29.236811 
-26.411551 14.875509 -28.206799 
-25.897200 15.724120 -28.199480 
-27.154530 15.314980 -27.145432 
-26.623840 16.182070 -27.133690 
-26.063869 17.038551 -27.128380 
-25.475380 17.881100 -27.127390 
-33.101280 16.973579 16.207359 
-32.510841 18.054699 16.218161 
-32.785110 18.411551 14.951100 
-33.380890 17.317690 14.940330 
-33.062439 18.713030 13.651990 
-33.662441 17.608049 13.641451 
-34.225079 16.487041 13.633710 
-33.938129 16.209429 14.932950 
-33.652069 15.879660 16.200541 
-33.336979 18.966530 12.327170 
-33.602879 19.179451 10.982941 
-34.210411 18.055691 10.973320 
-33.940689 17.851700 12.317019 
-34.782520 16.913200 10.965509 
-34.508141 16.719339 12.309120 
-35.319019 15.753011 10.959640 
-35.533691 14.405741 12.300200 
-35.039181 15.570370 12.303500 
-35.237991 14.200010 13.626280 
-34.750278 15.350770 13.628679 
-34.936970 13.952110 14.927550 
-34.163300 14.773379 16.197371 
-34.456821 15.087370 14.928761 
11.895340 25.754740 -30.242540 
11.388570 26.980940 -29.234020 
12.277350 26.596359 -29.234020 
11.731630 27.804319 -28.194120 
12.646370 27.408960 -28.194120 
13.548650 26.982620 -28.194170 
13.153640 26.182129 -29.234020 
12.744631 25.353100 -30.242529 
12.062281 28.597410 -27.123959 
13.343600 28.943970 -26.024681 
13.001940 28.191759 -27.123959 
14.294890 28.494551 -26.025141 
13.929200 27.753719 -27.124149 
15.232210 28.012098 -26.026520 
16.153940 27.497448 -26.029280 
15.740710 26.784092 -27.125799 
14.842620 27.284201 -27.124701 
15.310679 26.040440 -28.194580 
14.437180 26.526159 -28.194302 
14.864301 25.267689 -29.234020 
14.402050 24.467070 -30.242529 
13.580529 24.923670 -30.242540 
14.016331 25.738991 -29.234020 
-5.339600 -32.885700 -24.914228 
-5.462820 -33.572552 -23.779572 
-6.550370 -33.329842 -23.833879 
-6.402780 -32.665981 -24.948910 
-5.691490 -34.821571 -21.428152 
-5.580160 -34.215828 -22.617439 
-6.824230 -34.530807 -21.526529 
-6.690900 -33.948799 -22.693830 
-7.949690 -34.190849 -21.637699 
-7.794490 -33.636562 -22.779459 
-7.630910 -33.045471 -23.894300 
-7.459130 -32.407619 -24.987049 
11.483500 -11.130260 39.688179 
11.127150 -11.498480 39.688179 
11.952971 -12.324290 39.137188 
12.336130 -11.928391 39.137188 
12.777860 -13.149310 38.542019 
13.187600 -12.725830 38.542019 
13.583241 -12.289161 38.541592 
12.706161 -11.520129 39.136909 
11.827650 -10.750500 39.688038 
13.598050 -13.969890 37.903881 
14.409740 -14.782391 37.223980 
14.870980 -14.304450 37.223980 
14.033890 -13.519030 37.903881 
15.315900 -13.811670 37.223370 
14.454590 -13.054151 37.903320 
15.744070 -13.304569 37.221531 
16.155069 -12.783640 37.217861 
15.248810 -12.084270 37.898308 
14.859710 -12.575740 37.901649 
14.330581 -11.378030 38.537701 
13.964380 -11.839761 38.540291 
13.405330 -10.668100 39.134411 
12.478041 -9.957660 39.686790 
12.159270 -10.359520 39.687630 
13.062691 -11.099910 39.136082 
-10.719600 -19.023109 36.488617 
-11.351641 -18.691999 36.473701 
-11.981879 -18.351700 36.453651 
-12.580640 -19.256950 35.703037 
-11.926170 -19.623501 35.720020 
-11.269609 -19.980181 35.731682 
-13.227791 -17.638510 36.401360 
-12.608020 -18.000959 36.429260 
-13.886160 -18.501419 35.650337 
-13.233729 -18.882330 35.680050 
-14.519590 -19.333151 34.865250 
-14.429890 -20.567669 34.070850 
-13.838830 -19.736210 34.895111 
-13.732140 -20.997410 34.088089 
-13.162290 -20.137560 34.915482 
-13.035291 -21.420630 34.097500 
-12.333780 -21.830580 34.102180 
-11.807341 -20.916130 34.936329 
-12.486340 -20.532452 34.928490 
-15.013451 -21.381819 33.203632 
-15.587590 -22.176350 32.295029 
-14.849900 -22.663330 32.307018 
-14.295510 -21.840401 33.218052 
-16.150391 -22.948971 31.346609 
-15.392840 -23.463030 31.356680 
-13.846299 -24.432480 31.367380 
-14.625681 -23.958891 31.363050 
-13.354540 -23.591339 32.316940 
-14.107019 -23.136921 32.313480 
-12.849940 -22.723179 33.228802 
-13.576210 -22.289810 33.225391 
-33.891960 20.859949 -5.608700 
-34.576298 19.731710 -5.610250 
-34.728912 19.805531 -4.214980 
-34.048332 20.939310 -4.212530 
-34.831291 19.858780 -2.820760 
-34.153358 20.996250 -2.817430 
-33.437729 22.110960 -2.814200 
-33.329971 22.050699 -4.210550 
-33.169651 21.966501 -5.608320 
-34.884510 19.891050 -1.428030 
-34.215839 21.042070 -0.032180 
-34.208660 21.030560 -1.423830 
-33.504101 22.159290 -0.027100 
-33.495071 22.147190 -1.419600 
-32.752388 23.252390 -0.022940 
-31.958599 24.320160 -0.020630 
-31.949091 24.306890 -1.413980 
-32.742340 23.239700 -1.416070 
-31.890371 24.267111 -2.810110 
-32.683651 23.201672 -2.811590 
-31.779100 24.200830 -4.209030 
-32.409580 23.049728 -5.609030 
-32.573631 23.138330 -4.209300 
-33.843689 19.393341 -9.787150 
-33.141979 20.490471 -9.785360 
-34.125439 19.524580 -8.399450 
-33.429611 20.635031 -8.399030 
-32.695160 21.726721 -8.402570 
-32.401440 21.571661 -9.790060 
-34.372398 19.637720 -7.006110 
-33.682663 20.758350 -7.005510 
-32.954639 21.858421 -7.007160 
-32.188801 22.935890 -7.010580 
-31.922670 22.797010 -8.409010 
-31.622580 22.633268 -9.799350 
13.760410 32.680210 20.300940 
13.513010 32.083900 21.527679 
14.563360 31.631811 21.527679 
14.829980 32.219879 20.300940 
15.601000 31.142431 21.527679 
15.886641 31.721550 20.300940 
16.155310 32.266289 19.052549 
15.080750 32.773090 19.052540 
13.993080 33.241261 19.052519 
16.623909 30.617340 21.527679 
16.928320 31.186831 20.300940 
17.214649 31.722500 19.052561 
17.731859 32.690151 16.496250 
17.482590 32.223789 17.783880 
16.640680 33.250359 16.496210 
16.406750 32.776077 17.783859 
15.533910 33.772572 16.496099 
14.210920 33.766438 17.783720 
15.315470 33.290852 17.783819 
27.988829 -15.406400 -26.090401 
28.653650 -15.701341 -24.989241 
28.449869 -14.474490 -26.088381 
29.125090 -14.748079 -24.986650 
29.770559 -15.002740 -23.859291 
29.289291 -15.976339 -23.862440 
28.885469 -13.535330 -26.083670 
29.990461 -12.826010 -24.971321 
29.570721 -13.789701 -24.980551 
30.654659 -13.046140 -23.840429 
30.225679 -14.026131 -23.851801 
31.287310 -13.260060 -22.681511 
31.887619 -13.478490 -21.492140 
31.441801 -14.490729 -21.506802 
30.849619 -14.256010 -22.694759 
30.969542 -15.502339 -21.516459 
30.385599 -15.250240 -22.703491 
30.470610 -16.513830 -21.520611 
29.895151 -16.243221 -22.707169 
-23.402220 9.616970 33.293652 
-22.963619 10.369750 33.316410 
-24.039490 10.716270 32.356869 
-24.497768 9.930590 32.332550 
-25.073149 11.067329 31.371000 
-25.550079 10.250120 31.345411 
-25.983660 9.437520 31.328869 
-24.916811 9.146880 32.315701 
-23.805550 8.863710 33.276878 
-26.047909 11.438140 30.367670 
-26.947050 11.843961 29.355759 
-27.453999 10.972070 29.330580 
-26.541399 10.591860 30.341629 
-27.911150 10.108410 29.316730 
-26.987850 9.752420 30.325998 
-28.317789 9.253990 29.314270 
-27.736261 8.098880 30.326691 
-27.386419 8.921041 30.320959 
-26.717442 7.830810 31.323669 
-26.373060 8.630690 31.321558 
-25.634201 7.589630 32.305050 
-24.173000 8.110860 33.266178 
-25.295860 8.366210 32.306488 
16.253830 35.323570 -11.039559 
15.232420 36.133060 -9.702400 
16.395119 35.620628 -9.683370 
15.351560 36.393711 -8.342000 
16.519159 35.878059 -8.318180 
17.680229 35.317112 -8.308870 
17.550760 35.061157 -9.680170 
17.402901 34.765781 -11.043059 
15.451590 36.614491 -6.970190 
16.707090 36.274109 -5.557260 
16.623850 36.095879 -6.943100 
17.877991 35.710571 -5.540380 
17.789820 35.533592 -6.929000 
19.038330 35.104610 -5.534080 
20.183908 34.456150 -5.537430 
20.085791 34.272690 -6.942020 
18.945219 34.926311 -6.928460 
19.965511 34.047958 -8.343210 
18.830460 34.708031 -8.316430 
19.823620 33.783909 -9.737960 
19.660709 33.482491 -11.123249 
18.539919 34.153900 -11.069030 
18.695030 34.450359 -9.696959 
-31.213541 -25.896189 4.184750 
-31.297501 -25.958950 2.785770 
-30.439011 -26.981531 2.792310 
-30.357361 -26.913290 4.189820 
-31.347931 -25.971930 1.370570 
-30.488060 -27.000502 1.379540 
-29.595499 -28.003149 1.390020 
-29.547890 -27.977409 2.799900 
-29.468620 -27.902948 4.195460 
-39.622292 -6.870220 -5.612430 
-39.750599 -6.924550 -4.211060 
-39.407188 -8.106540 -5.635410 
-39.540478 -8.181010 -4.223000 
-39.630859 -8.239420 -2.811000 
-39.835529 -6.965550 -2.809720 
-39.150021 -9.319190 -5.667640 
-38.989300 -10.635500 -4.267720 
-39.288139 -9.417800 -4.241530 
-39.089169 -10.738590 -2.828800 
-39.383831 -9.497240 -2.816610 
-39.147102 -10.814290 -1.396530 
-39.163078 -10.857110 0.024360 
-39.448280 -9.583570 0.014880 
-39.437180 -9.553750 -1.396590 
-39.683689 -8.298400 0.000620 
