0.315630 0.471153 0.308601 
-0.149877 -0.112435 -0.000000 
-0.074938 -0.112435 -0.000000 
-0.074938 -0.224871 -0.000000 
-0.316280 -0.471429 0.308601 
-0.315459 -0.472251 0.308601 
0.205953 0.455398 0.110221 
0.205953 0.459148 0.110221 
-0.322161 0.465327 0.050247 
-0.321339 0.466147 0.050247 
0.308952 0.451320 0.136365 
0.306300 0.448669 0.136365 
0.299727 0.455232 0.136365 
0.302377 0.457886 0.136365 
0.207116 0.477894 0.247599 
0.205953 0.477894 0.247599 
-0.204588 0.466646 0.178910 
-0.204588 0.470396 0.178910 
0.215253 0.466646 0.178910 
0.215253 0.470396 0.178910 
-0.226571 0.479838 0.281062 
-0.226571 0.479838 0.279900 
0.226571 -0.479838 0.281062 
0.226571 -0.479838 0.279900 
0.205953 -0.466772 0.178910 
0.205953 -0.470522 0.178910 
0.215253 -0.466772 0.110221 
0.215253 -0.470522 0.110221 
-0.204588 -0.478020 0.041532 
-0.205750 -0.478020 0.041532 
-0.226571 0.479838 0.001163 
-0.226571 0.479838 0.000000 
0.226571 -0.479838 0.001162 
0.226571 -0.479838 -0.000000 
0.316835 0.331020 0.223122 
0.320585 0.331020 0.223122 
0.316835 -0.326409 0.137850 
0.320585 -0.326409 0.137850 
-0.329130 0.332180 0.309496 
-0.329130 0.331020 0.309496 
-0.226571 0.479838 0.352415 
-0.226571 0.479838 0.351261 
0.073704 0.221100 0.003543 
0.073704 0.110550 0.003543 
0.147405 0.110550 0.003543 
-0.310384 0.340302 0.136749 
-0.306634 0.340302 0.136749 
-0.310384 -0.335700 0.224223 
-0.306634 -0.335700 0.224223 
-0.147546 0.441548 0.137399 
-0.220955 0.441548 0.137399 
-0.221101 0.441765 0.092780 
0.146673 0.440677 0.315873 
0.073264 0.440677 0.315873 
0.073118 0.440895 0.271255 
-0.146964 0.440677 0.315873 
-0.220373 0.440677 0.315873 
-0.220519 0.440895 0.271255 
0.299938 -0.112561 0.270369 
0.299969 -0.112530 0.315430 
0.299969 -0.225028 0.315430 
0.299815 0.337306 0.090123 
0.299846 0.337338 0.135185 
0.299846 0.224839 0.135185 
0.299938 0.337432 0.270369 
0.299969 0.337464 0.315431 
0.299969 0.224965 0.315430 
-0.299938 0.112561 0.270369 
-0.299969 0.112530 0.315430 
-0.299969 0.225028 0.315430 
-0.299815 -0.337306 0.090123 
-0.299846 -0.337338 0.135184 
-0.299846 -0.224839 0.135184 
-0.299938 -0.337432 0.270369 
-0.299969 -0.337464 0.315430 
-0.299969 -0.224965 0.315430 
0.075062 0.449931 0.270369 
0.075031 0.449962 0.315431 
0.150031 0.449962 0.315431 
-0.224815 0.449805 0.090123 
-0.224846 0.449836 0.135185 
-0.149846 0.449836 0.135185 
-0.224938 0.449931 0.270369 
-0.224969 0.449962 0.315431 
-0.149969 0.449962 0.315431 
0.313779 -0.457205 0.308601 
0.316431 -0.459855 0.308601 
0.303171 -0.446603 0.136365 
0.305823 -0.449253 0.136365 
0.303171 -0.446603 0.308601 
0.305823 -0.449253 0.308601 
0.076047 -0.472377 0.360492 
0.075785 -0.476107 0.360492 
-0.225000 -0.457455 0.360492 
-0.225262 -0.461185 0.360492 
-0.226047 -0.472377 0.360492 
-0.226309 -0.476107 0.360492 
-0.073990 -0.441762 0.092780 
-0.073844 -0.441981 0.048162 
-0.147545 -0.441981 0.048162 
0.220229 -0.440886 0.271255 
0.220375 -0.441105 0.226636 
0.146674 -0.441105 0.226636 
0.220814 -0.441762 0.092780 
0.220960 -0.441981 0.048162 
0.147259 -0.441981 0.048162 
-0.294510 0.110988 0.092780 
-0.294656 0.110769 0.048162 
-0.294656 0.221319 0.048162 
-0.293928 -0.330336 0.271255 
-0.294074 -0.330555 0.226636 
-0.294074 -0.220005 0.226636 
-0.294510 -0.331212 0.092780 
-0.294656 -0.331431 0.048162 
-0.294656 -0.220881 0.048162 
0.294368 0.221321 0.137399 
0.294368 0.331434 0.137399 
0.294515 0.331652 0.092780 
0.293783 -0.220003 0.315873 
0.293783 -0.109890 0.315873 
0.293930 -0.109672 0.271255 
0.293783 0.220450 0.315873 
0.293783 0.330564 0.315873 
0.293930 0.330781 0.271255 
0.159299 0.477882 0.178351 
0.159299 0.477882 0.177189 
0.055006 0.477882 0.180674 
0.055006 0.477882 0.182998 
-0.297614 0.116078 0.360492 
-0.296023 0.113695 0.360492 
-0.293637 0.330346 0.360492 
-0.294432 0.331538 0.360492 
0.294432 -0.329143 0.360492 
0.295228 -0.330336 0.360492 
0.300000 -0.112498 0.360492 
0.298409 -0.110112 0.360492 
-0.073409 0.447610 0.360492 
-0.075000 0.449994 0.360492 
-0.220228 0.442843 0.360492 
-0.219432 0.441652 0.360492 
-0.295228 -0.330336 0.360492 
-0.294432 -0.329143 0.360492 
-0.298409 -0.110112 0.360492 
-0.300000 -0.112498 0.360492 
0.297614 0.116078 0.360492 
0.296023 0.113695 0.360492 
0.293637 0.330346 0.360492 
0.294432 0.331538 0.360492 
-0.049288 -0.475512 0.180674 
-0.049288 -0.475512 0.182998 
-0.153581 -0.475512 0.186483 
-0.153581 -0.475512 0.185321 
-0.153581 0.459136 0.186483 
-0.153581 0.455387 0.186483 
0.055006 0.474133 0.186483 
0.055006 0.470383 0.186483 
-0.153581 0.474133 0.186483 
-0.153581 0.470383 0.186483 
0.159299 0.459136 0.177189 
0.159299 0.455387 0.177189 
-0.049288 0.474133 0.177189 
-0.049288 0.470383 0.177189 
0.159299 0.474133 0.177189 
0.159299 0.470383 0.177189 
-0.153581 -0.464264 0.186483 
-0.153581 -0.468013 0.186483 
0.055006 -0.449267 0.186483 
0.055006 -0.453017 0.186483 
-0.153581 -0.449267 0.186483 
-0.153581 -0.453017 0.186483 
0.159299 -0.464264 0.177189 
0.159299 -0.468013 0.177189 
-0.049288 -0.449267 0.177189 
-0.049288 -0.453017 0.177189 
0.159299 -0.449267 0.177189 
0.159299 -0.453017 0.177189 
0.226571 -0.479838 0.359338 
0.226571 -0.479838 0.360492 
0.075524 -0.479838 0.357030 
0.075524 -0.479838 0.354723 
-0.310384 0.331020 0.050375 
-0.306634 0.331020 0.050375 
-0.325381 0.331020 0.223122 
-0.321631 0.331020 0.223122 
-0.325381 0.331020 0.050375 
-0.321631 0.331020 0.050375 
-0.329853 -0.339063 0.359338 
-0.329853 -0.339063 0.360492 
-0.329853 -0.113014 0.357030 
-0.329853 -0.113014 0.354723 
-0.329130 -0.327570 0.310597 
-0.329130 -0.326409 0.310597 
-0.329130 -0.329893 0.224223 
-0.329130 -0.332216 0.224223 
-0.329853 -0.339063 0.008137 
-0.329853 -0.339063 0.009300 
-0.329853 -0.113014 0.005812 
-0.329853 -0.113014 0.003487 
0.316835 -0.335700 0.051476 
0.320585 -0.335700 0.051476 
0.301838 -0.335700 0.224223 
0.305588 -0.335700 0.224223 
0.301838 -0.335700 0.051476 
0.305588 -0.335700 0.051476 
-0.329853 0.339084 0.281062 
-0.329853 0.339084 0.279900 
-0.329853 0.113035 0.283386 
-0.329853 0.113035 0.285711 
0.316835 0.340302 0.309496 
0.320585 0.340302 0.309496 
0.301838 0.340302 0.136749 
0.305588 0.340302 0.136749 
0.301838 0.340302 0.309496 
0.305588 0.340302 0.309496 
-0.318566 -0.338773 0.279900 
-0.322328 -0.339066 0.279900 
-0.303516 0.112142 0.279900 
-0.307279 0.111849 0.279900 
-0.303516 -0.337600 0.279900 
-0.307279 -0.337893 0.279900 
0.076109 -0.472314 0.009300 
0.075816 -0.476076 0.009300 
-0.224815 -0.457266 0.009300 
-0.225108 -0.461028 0.009300 
-0.225986 -0.472314 0.009300 
-0.226278 -0.476076 0.009300 
0.076109 0.472314 0.279900 
0.075816 0.476076 0.279900 
-0.224815 0.457266 0.279900 
-0.225108 0.461028 0.279900 
-0.225986 0.472314 0.279900 
-0.226278 0.476076 0.279900 
0.226309 0.468646 0.360492 
0.226571 0.472377 0.360492 
-0.074738 0.453724 0.360492 
-0.074476 0.457455 0.360492 
0.225262 0.453724 0.360492 
0.225524 0.457455 0.360492 
0.226278 0.468552 0.009300 
0.226571 0.472314 0.009300 
-0.074646 0.453504 0.009300 
-0.074353 0.457266 0.009300 
0.225108 0.453504 0.009300 
0.225400 0.457266 0.009300 
0.318660 -0.338804 0.360492 
0.322392 -0.339066 0.360492 
0.303732 0.112237 0.360492 
0.307464 0.111975 0.360492 
0.303732 -0.337757 0.360492 
0.307464 -0.338019 0.360492 
0.318568 -0.338773 0.289197 
0.322331 -0.339066 0.289197 
0.303517 0.112142 0.289197 
0.307279 0.111849 0.289197 
0.303517 -0.337600 0.289197 
0.307279 -0.337893 0.289197 
-0.322390 -0.113543 0.360492 
-0.326121 -0.113279 0.360492 
-0.307463 0.337498 0.360492 
-0.311195 0.337762 0.360492 
-0.322390 0.338556 0.360492 
-0.326121 0.338820 0.360492 
0.328083 -0.329893 0.137850 
0.328083 -0.332216 0.137850 
0.328083 -0.335700 0.051476 
0.328083 -0.334539 0.051476 
0.328083 0.336821 0.136749 
0.328083 0.334501 0.136749 
0.328083 0.331020 0.050375 
0.328083 0.332180 0.050375 
-0.204588 -0.466772 0.247599 
-0.204588 -0.470522 0.247599 
-0.204588 -0.451775 0.110221 
-0.204588 -0.455525 0.110221 
-0.204588 -0.451775 0.247599 
-0.204588 -0.455525 0.247599 
-0.213888 -0.466772 0.041532 
-0.213888 -0.470522 0.041532 
-0.213888 -0.451775 0.178910 
-0.213888 -0.455525 0.178910 
-0.213888 -0.451775 0.041532 
-0.213888 -0.455525 0.041532 
-0.322328 -0.113606 0.009300 
-0.326091 -0.113310 0.009300 
-0.307279 0.337309 0.009300 
-0.311041 0.337605 0.009300 
-0.322328 0.338493 0.009300 
-0.326091 0.338788 0.009300 
0.073409 -0.447607 0.360492 
0.075000 -0.449994 0.360492 
0.220228 -0.442834 0.360492 
0.219432 -0.441641 0.360492 
0.226278 0.468552 0.289197 
0.226571 0.472314 0.289197 
-0.074646 0.453504 0.289197 
-0.074353 0.457266 0.289197 
0.225108 0.453504 0.289197 
0.225400 0.457266 0.289197 
0.076109 -0.472314 0.289197 
0.075816 -0.476076 0.289197 
-0.224815 -0.457266 0.289197 
-0.225108 -0.461028 0.289197 
-0.225986 -0.472314 0.289197 
-0.226278 -0.476076 0.289197 
0.226278 -0.468552 0.351261 
0.226571 -0.472314 0.351261 
-0.074646 -0.453504 0.351261 
-0.074353 -0.457266 0.351261 
0.225108 -0.453504 0.351261 
0.225400 -0.457266 0.351261 
0.226278 -0.468552 -0.000000 
0.226571 -0.472314 -0.000000 
-0.074646 -0.453504 -0.000000 
-0.074353 -0.457266 -0.000000 
0.225108 -0.453504 -0.000000 
0.225400 -0.457266 -0.000000 
-0.318566 -0.338773 0.351261 
-0.322328 -0.339066 0.351261 
-0.303516 0.112142 0.351261 
-0.307279 0.111849 0.351261 
-0.303516 -0.337600 0.351261 
-0.307279 -0.337893 0.351261 
0.322331 -0.113606 0.279900 
0.326093 -0.113310 0.279900 
0.307279 0.337309 0.279900 
0.311042 0.337605 0.279900 
0.322331 0.338493 0.279900 
0.326093 0.338788 0.279900 
0.211765 -0.478020 0.110221 
0.209440 -0.478020 0.110221 
0.205953 -0.478020 0.041532 
0.207116 -0.478020 0.041532 
-0.213888 0.470396 0.110221 
-0.213888 0.474145 0.110221 
-0.213888 0.455398 0.247599 
-0.213888 0.459148 0.247599 
-0.213888 0.470396 0.247599 
-0.213888 0.474145 0.247599 
-0.310384 -0.326409 0.310597 
-0.306634 -0.326409 0.310597 
-0.325381 -0.326409 0.137850 
-0.321631 -0.326409 0.137850 
-0.325381 -0.326409 0.310597 
-0.321631 -0.326409 0.310597 
-0.205750 0.477894 0.247599 
-0.204588 0.477894 0.247599 
-0.208075 0.477894 0.178910 
-0.210400 0.477894 0.178910 
-0.075062 -0.449931 0.270369 
-0.075031 -0.449962 0.315430 
-0.150031 -0.449962 0.315430 
0.224815 -0.449805 0.090123 
0.224846 -0.449836 0.135184 
0.149846 -0.449836 0.135184 
0.224938 -0.449931 0.270369 
0.224969 -0.449962 0.315430 
0.149969 -0.449962 0.315430 
0.329856 0.339084 0.008138 
0.329856 0.339084 0.009300 
0.329856 0.113035 0.005813 
0.329856 0.113035 0.003488 
-0.308769 -0.452418 0.308601 
-0.306117 -0.449767 0.308601 
-0.319377 -0.463021 0.136365 
-0.316725 -0.460370 0.136365 
-0.319377 -0.463021 0.308601 
-0.316725 -0.460370 0.308601 
0.329856 0.339084 0.288035 
0.329856 0.339084 0.289197 
0.329856 0.113035 0.285711 
0.329856 0.113035 0.283386 
-0.302201 -0.458991 0.050247 
-0.299549 -0.456339 0.050247 
-0.312807 -0.469599 0.222483 
-0.310156 -0.466947 0.222483 
-0.312807 -0.469599 0.050247 
-0.310156 -0.466947 0.050247 
-0.322328 -0.113606 0.289197 
-0.326091 -0.113310 0.289197 
-0.307279 0.337309 0.289197 
-0.311041 0.337605 0.289197 
-0.322328 0.338493 0.289197 
-0.326091 0.338788 0.289197 
-0.318566 -0.338773 -0.000000 
-0.322328 -0.339066 -0.000000 
-0.303516 0.112142 0.000000 
-0.307279 0.111849 0.000000 
-0.303516 -0.337600 -0.000000 
-0.307279 -0.337893 -0.000000 
0.076109 0.472314 0.000000 
0.075816 0.476076 0.000000 
-0.224815 0.457266 0.000000 
-0.225108 0.461028 0.000000 
-0.225986 0.472314 0.000000 
-0.226278 0.476076 0.000000 
0.226278 -0.468552 0.279900 
0.226571 -0.472314 0.279900 
-0.074646 -0.453504 0.279900 
-0.074353 -0.457266 0.279900 
0.225108 -0.453504 0.279900 
0.225400 -0.457266 0.279900 
0.076109 0.472314 0.351261 
0.075816 0.476076 0.351261 
-0.224815 0.457266 0.351261 
-0.225108 0.461028 0.351261 
-0.225986 0.472314 0.351261 
-0.226278 0.476076 0.351261 
0.322331 -0.113606 0.351261 
0.326093 -0.113310 0.351261 
0.307279 0.337309 0.351261 
0.311042 0.337605 0.351261 
0.322331 0.338493 0.351261 
0.326093 0.338788 0.351261 
0.322331 -0.113606 -0.000000 
0.326093 -0.113310 -0.000000 
0.307279 0.337309 0.000000 
0.311042 0.337605 0.000000 
0.322331 0.338493 0.000000 
0.326093 0.338788 0.000000 
0.318568 -0.338773 0.009300 
0.322331 -0.339066 0.009300 
0.303517 0.112142 0.009300 
0.307279 0.111849 0.009300 
0.303517 -0.337600 0.009300 
0.307279 -0.337893 0.009300 
0.307204 -0.463781 0.050247 
0.309856 -0.466433 0.050247 
0.296598 -0.453171 0.222483 
0.299249 -0.455824 0.222483 
0.296598 -0.453171 0.050247 
0.299249 -0.455824 0.050247 
-0.306251 0.449440 0.222483 
-0.303600 0.446792 0.222483 
-0.316858 0.460031 0.050247 
-0.314206 0.457383 0.050247 
-0.306251 0.449440 0.050247 
-0.303600 0.446792 0.050247 
-0.302333 0.458632 0.308601 
-0.299682 0.455982 0.308601 
-0.312935 0.469235 0.136365 
-0.310284 0.466584 0.136365 
-0.312935 0.469235 0.308601 
-0.310284 0.466584 0.308601 
0.329856 0.339084 0.359338 
0.329856 0.339084 0.360492 
0.329856 0.113035 0.357030 
0.329856 0.113035 0.354723 
0.319269 -0.467624 0.136365 
0.317625 -0.469270 0.136365 
0.315159 -0.471738 0.050247 
0.315981 -0.470915 0.050247 
0.321389 0.465396 0.308601 
0.322212 0.464574 0.308601 
0.319744 0.467041 0.222483 
0.318098 0.468686 0.222483 
0.149877 -0.112435 -0.000000 
0.224815 -0.112435 -0.000000 
0.224815 -0.224871 -0.000000 
-0.149877 0.337306 0.000000 
-0.074938 0.337306 0.000000 
-0.074938 0.224871 0.000000 
0.149877 0.337306 0.000000 
0.224815 0.337306 0.000000 
0.224815 0.224871 0.000000 
-0.321208 -0.466494 0.308601 
-0.322029 -0.465672 0.308601 
-0.319565 -0.468139 0.222483 
-0.317923 -0.469784 0.222483 
0.205953 0.470396 0.110221 
0.205953 0.474145 0.110221 
0.205953 0.455398 0.247599 
0.205953 0.459148 0.247599 
0.205953 0.470396 0.247599 
0.205953 0.474145 0.247599 
-0.319695 0.467786 0.136365 
-0.318051 0.469426 0.136365 
-0.315585 0.471885 0.050247 
-0.316407 0.471065 0.050247 
0.308952 0.451320 0.308601 
0.306300 0.448669 0.308601 
0.319560 0.461923 0.136365 
0.316908 0.459272 0.136365 
0.319560 0.461923 0.308601 
0.316908 0.459272 0.308601 
0.310329 0.465846 0.136365 
0.312979 0.468499 0.136365 
0.299727 0.455232 0.308601 
0.302377 0.457886 0.308601 
0.310329 0.465846 0.308601 
0.312979 0.468499 0.308601 
0.214090 0.477894 0.247599 
0.215253 0.477894 0.247599 
0.211765 0.477894 0.178910 
0.209440 0.477894 0.178910 
-0.204588 0.466646 0.041532 
-0.204588 0.470396 0.041532 
-0.204588 0.451649 0.178910 
-0.204588 0.455398 0.178910 
-0.204588 0.451649 0.041532 
-0.204588 0.455398 0.041532 
0.215253 0.466646 0.041532 
0.215253 0.470396 0.041532 
0.215253 0.451649 0.178910 
0.215253 0.455398 0.178910 
0.215253 0.451649 0.041532 
0.215253 0.455398 0.041532 
-0.226571 0.479838 0.288035 
-0.226571 0.479838 0.289197 
-0.075524 0.479838 0.285711 
-0.075524 0.479838 0.283386 
0.226571 -0.479838 0.288035 
0.226571 -0.479838 0.289197 
0.075524 -0.479838 0.285711 
0.075524 -0.479838 0.283386 
0.205953 -0.466772 0.041532 
0.205953 -0.470522 0.041532 
0.205953 -0.451775 0.178910 
0.205953 -0.455525 0.178910 
0.205953 -0.451775 0.041532 
0.205953 -0.455525 0.041532 
0.215253 -0.466772 0.247599 
0.215253 -0.470522 0.247599 
0.215253 -0.451775 0.110221 
0.215253 -0.455525 0.110221 
0.215253 -0.451775 0.247599 
0.215253 -0.455525 0.247599 
-0.208075 -0.478020 0.110221 
-0.210400 -0.478020 0.110221 
-0.213888 -0.478020 0.041532 
-0.212725 -0.478020 0.041532 
-0.226571 0.479838 0.008138 
-0.226571 0.479838 0.009300 
-0.075524 0.479838 0.005813 
-0.075524 0.479838 0.003488 
0.226571 -0.479838 0.008137 
0.226571 -0.479838 0.009300 
0.075524 -0.479838 0.005812 
0.075524 -0.479838 0.003487 
0.316835 0.331020 0.050375 
0.320585 0.331020 0.050375 
0.301838 0.331020 0.223122 
0.305588 0.331020 0.223122 
0.301838 0.331020 0.050375 
0.305588 0.331020 0.050375 
0.316835 -0.326409 0.310597 
0.320585 -0.326409 0.310597 
0.301838 -0.326409 0.137850 
0.305588 -0.326409 0.137850 
0.301838 -0.326409 0.310597 
0.305588 -0.326409 0.310597 
-0.329130 0.339142 0.309496 
-0.329130 0.340302 0.309496 
-0.329130 0.336821 0.223122 
-0.329130 0.334501 0.223122 
-0.226571 0.479838 0.359338 
-0.226571 0.479838 0.360492 
-0.075524 0.479838 0.357030 
-0.075524 0.479838 0.354723 
0.073704 -0.221100 0.003543 
0.073704 -0.331650 0.003543 
0.147405 -0.331650 0.003543 
-0.221100 0.221100 0.003543 
-0.221100 0.110550 0.003543 
-0.147399 0.110550 0.003543 
-0.221100 -0.221100 0.003543 
-0.221100 -0.331650 0.003543 
-0.147399 -0.331650 0.003543 
-0.310384 0.340302 0.309496 
-0.306634 0.340302 0.309496 
-0.325381 0.340302 0.136749 
-0.321631 0.340302 0.136749 
-0.325381 0.340302 0.309496 
-0.321631 0.340302 0.309496 
-0.310384 -0.335700 0.051476 
-0.306634 -0.335700 0.051476 
-0.325381 -0.335700 0.224223 
-0.321631 -0.335700 0.224223 
-0.325381 -0.335700 0.051476 
-0.321631 -0.335700 0.051476 
-0.073844 0.441983 0.048162 
-0.073990 0.441765 0.092780 
-0.147545 0.441983 0.048162 
0.220960 0.441983 0.048162 
0.220814 0.441765 0.092780 
0.147259 0.441983 0.048162 
0.220375 0.441112 0.226636 
0.220229 0.440895 0.271255 
0.146674 0.441112 0.226636 
0.299908 -0.337464 0.225307 
0.299908 -0.225028 0.225307 
0.299938 -0.337495 0.270369 
0.299785 -0.337338 0.045061 
0.299785 -0.224902 0.045061 
0.299815 -0.337369 0.090123 
0.299785 0.112404 0.045062 
0.299785 0.224840 0.045062 
0.299815 0.112373 0.090123 
-0.299908 0.337464 0.225308 
-0.299908 0.225028 0.225307 
-0.299938 0.337495 0.270369 
-0.299785 0.337338 0.045062 
-0.299785 0.224902 0.045062 
-0.299815 0.337369 0.090123 
-0.299785 -0.112404 0.045061 
-0.299785 -0.224840 0.045061 
-0.299815 -0.112373 0.090123 
0.224969 0.449899 0.225308 
0.150031 0.449899 0.225308 
0.225000 0.449931 0.270369 
0.224846 0.449773 0.045062 
0.149908 0.449773 0.045062 
0.224877 0.449805 0.090123 
-0.074908 0.449773 0.045062 
-0.149846 0.449773 0.045062 
-0.074877 0.449805 0.090123 
0.319083 -0.462506 0.222483 
0.316431 -0.459855 0.222483 
0.319083 -0.462506 0.050247 
0.316431 -0.459855 0.050247 
0.308475 -0.451904 0.050247 
0.305823 -0.449253 0.050247 
0.226309 -0.468646 0.360492 
0.226571 -0.472377 0.360492 
0.225262 -0.453724 0.360492 
0.225524 -0.457455 0.360492 
-0.074738 -0.453724 0.360492 
-0.074476 -0.457455 0.360492 
-0.220955 -0.441543 0.137399 
-0.147546 -0.441543 0.137399 
-0.221101 -0.441762 0.092780 
-0.220373 -0.440667 0.315873 
-0.146964 -0.440667 0.315873 
-0.220519 -0.440886 0.271255 
0.073264 -0.440667 0.315873 
0.146673 -0.440667 0.315873 
0.073118 -0.440886 0.271255 
-0.294365 0.331434 0.137399 
-0.294365 0.221321 0.137399 
-0.294510 0.331652 0.092780 
-0.293783 0.330564 0.315873 
-0.293783 0.220450 0.315873 
-0.293928 0.330781 0.271255 
-0.293783 -0.109890 0.315873 
-0.293783 -0.220003 0.315873 
-0.293928 -0.109672 0.271255 
0.294661 0.110769 0.048162 
0.294515 0.110988 0.092780 
0.294661 0.221319 0.048162 
0.294661 -0.331431 0.048162 
0.294515 -0.331212 0.092780 
0.294661 -0.220881 0.048162 
0.294076 -0.330555 0.226636 
0.293930 -0.330336 0.271255 
0.294076 -0.220005 0.226636 
-0.049288 0.477882 0.180674 
-0.049288 0.477882 0.182998 
-0.153581 0.477882 0.186483 
-0.153581 0.477882 0.185321 
0.220228 0.440460 0.360492 
0.221023 0.441652 0.360492 
0.077386 0.446419 0.360492 
0.075795 0.444035 0.360492 
0.159299 -0.475512 0.177189 
0.159299 -0.475512 0.178351 
0.055006 -0.475512 0.182998 
0.055006 -0.475512 0.180674 
-0.049288 0.451637 0.186483 
-0.049288 0.455387 0.186483 
0.159299 0.451637 0.186483 
0.159299 0.455387 0.186483 
0.159299 0.466634 0.186483 
0.159299 0.470383 0.186483 
0.055006 0.451637 0.177189 
0.055006 0.455387 0.177189 
-0.153581 0.451637 0.177189 
-0.153581 0.455387 0.177189 
-0.153581 0.466634 0.177189 
-0.153581 0.470383 0.177189 
-0.049288 -0.471763 0.186483 
-0.049288 -0.468013 0.186483 
0.159299 -0.471763 0.186483 
0.159299 -0.468013 0.186483 
0.159299 -0.456766 0.186483 
0.159299 -0.453017 0.186483 
0.055006 -0.471763 0.177189 
0.055006 -0.468013 0.177189 
-0.153581 -0.471763 0.177189 
-0.153581 -0.468013 0.177189 
-0.153581 -0.456766 0.177189 
-0.153581 -0.453017 0.177189 
-0.075524 -0.479838 0.357030 
-0.075524 -0.479838 0.354723 
-0.226571 -0.479838 0.351261 
-0.226571 -0.479838 0.352415 
-0.302885 0.331020 0.136749 
-0.306634 0.331020 0.136749 
-0.302885 0.331020 0.309496 
-0.306634 0.331020 0.309496 
-0.317882 0.331020 0.309496 
-0.321631 0.331020 0.309496 
-0.329853 0.113035 0.357030 
-0.329853 0.113035 0.354723 
-0.329853 0.339084 0.351261 
-0.329853 0.339084 0.352415 
-0.329130 -0.329893 0.137850 
-0.329130 -0.332216 0.137850 
-0.329130 -0.335700 0.051476 
-0.329130 -0.334539 0.051476 
-0.329853 0.113035 0.005813 
-0.329853 0.113035 0.003488 
-0.329853 0.339084 0.000000 
-0.329853 0.339084 0.001163 
0.324334 -0.335700 0.137850 
0.320585 -0.335700 0.137850 
0.324334 -0.335700 0.310597 
0.320585 -0.335700 0.310597 
0.309337 -0.335700 0.310597 
0.305588 -0.335700 0.310597 
-0.329853 -0.113014 0.283386 
-0.329853 -0.113014 0.285711 
-0.329853 -0.339063 0.289197 
-0.329853 -0.339063 0.288035 
0.324334 0.340302 0.223122 
0.320585 0.340302 0.223122 
0.324334 0.340302 0.050375 
0.320585 0.340302 0.050375 
0.309337 0.340302 0.050375 
0.305588 0.340302 0.050375 
-0.326091 -0.113310 0.279900 
-0.322328 -0.113606 0.279900 
-0.326091 0.338788 0.279900 
-0.322328 0.338493 0.279900 
-0.311041 0.337605 0.279900 
-0.307279 0.337309 0.279900 
0.226278 -0.468552 0.009300 
0.226571 -0.472314 0.009300 
0.225108 -0.453504 0.009300 
0.225400 -0.457266 0.009300 
-0.074646 -0.453504 0.009300 
-0.074353 -0.457266 0.009300 
0.226278 0.468552 0.279900 
0.226571 0.472314 0.279900 
0.225108 0.453504 0.279900 
0.225400 0.457266 0.279900 
-0.074646 0.453504 0.279900 
-0.074353 0.457266 0.279900 
0.075785 0.476107 0.360492 
0.076047 0.472377 0.360492 
-0.226309 0.476107 0.360492 
-0.226047 0.472377 0.360492 
-0.225262 0.461185 0.360492 
-0.225000 0.457455 0.360492 
0.075816 0.476076 0.009300 
0.076109 0.472314 0.009300 
-0.226278 0.476076 0.009300 
-0.225986 0.472314 0.009300 
-0.225108 0.461028 0.009300 
-0.224815 0.457266 0.009300 
0.326124 -0.113279 0.360492 
0.322392 -0.113543 0.360492 
0.326124 0.338820 0.360492 
0.322392 0.338556 0.360492 
0.311196 0.337762 0.360492 
0.307464 0.337498 0.360492 
0.326093 -0.113310 0.289197 
0.322331 -0.113606 0.289197 
0.326093 0.338788 0.289197 
0.322331 0.338493 0.289197 
0.311042 0.337605 0.289197 
0.307279 0.337309 0.289197 
-0.318658 -0.338804 0.360492 
-0.322390 -0.339066 0.360492 
-0.303732 -0.337757 0.360492 
-0.307463 -0.338019 0.360492 
-0.303732 0.112237 0.360492 
-0.307463 0.111975 0.360492 
0.328083 -0.326409 0.310597 
0.328083 -0.327570 0.310597 
0.328083 -0.332216 0.224223 
0.328083 -0.329893 0.224223 
0.328083 0.340302 0.309496 
0.328083 0.339142 0.309496 
0.328083 0.334501 0.223122 
0.328083 0.336821 0.223122 
-0.204588 -0.474271 0.178910 
-0.204588 -0.470522 0.178910 
-0.204588 -0.474271 0.041532 
-0.204588 -0.470522 0.041532 
-0.204588 -0.459274 0.041532 
-0.204588 -0.455525 0.041532 
-0.213888 -0.474271 0.110221 
-0.213888 -0.470522 0.110221 
-0.213888 -0.474271 0.247599 
-0.213888 -0.470522 0.247599 
-0.213888 -0.459274 0.247599 
-0.213888 -0.455525 0.247599 
-0.318566 -0.338773 0.009300 
-0.322328 -0.339066 0.009300 
-0.303516 -0.337600 0.009300 
-0.307279 -0.337893 0.009300 
-0.303516 0.112142 0.009300 
-0.307279 0.111849 0.009300 
-0.220228 -0.440448 0.360492 
-0.221023 -0.441641 0.360492 
-0.077386 -0.446414 0.360492 
-0.075795 -0.444028 0.360492 
0.075816 0.476076 0.289197 
0.076109 0.472314 0.289197 
-0.226278 0.476076 0.289197 
-0.225986 0.472314 0.289197 
-0.225108 0.461028 0.289197 
-0.224815 0.457266 0.289197 
0.226278 -0.468552 0.289197 
0.226571 -0.472314 0.289197 
0.225108 -0.453504 0.289197 
0.225400 -0.457266 0.289197 
-0.074646 -0.453504 0.289197 
-0.074353 -0.457266 0.289197 
0.075816 -0.476076 0.351261 
0.076109 -0.472314 0.351261 
-0.226278 -0.476076 0.351261 
-0.225986 -0.472314 0.351261 
-0.225108 -0.461028 0.351261 
-0.224815 -0.457266 0.351261 
0.075816 -0.476076 -0.000000 
0.076109 -0.472314 -0.000000 
-0.226278 -0.476076 -0.000000 
-0.225986 -0.472314 -0.000000 
-0.225108 -0.461028 -0.000000 
-0.224815 -0.457266 -0.000000 
-0.326091 -0.113310 0.351261 
-0.322328 -0.113606 0.351261 
-0.326091 0.338788 0.351261 
-0.322328 0.338493 0.351261 
-0.311041 0.337605 0.351261 
-0.307279 0.337309 0.351261 
0.318568 -0.338773 0.279900 
0.322331 -0.339066 0.279900 
0.303517 -0.337600 0.279900 
0.307279 -0.337893 0.279900 
0.303517 0.112142 0.279900 
0.307279 0.111849 0.279900 
0.215253 -0.478020 0.247599 
0.214090 -0.478020 0.247599 
0.209440 -0.478020 0.178910 
0.211765 -0.478020 0.178910 
-0.213888 0.466646 0.041532 
-0.213888 0.470396 0.041532 
-0.213888 0.451649 0.041532 
-0.213888 0.455398 0.041532 
-0.213888 0.451649 0.178910 
-0.213888 0.455398 0.178910 
-0.302885 -0.326409 0.224223 
-0.306634 -0.326409 0.224223 
-0.302885 -0.326409 0.051476 
-0.306634 -0.326409 0.051476 
-0.317882 -0.326409 0.051476 
-0.321631 -0.326409 0.051476 
-0.208075 0.477894 0.110221 
-0.210400 0.477894 0.110221 
-0.213888 0.477894 0.041532 
-0.212725 0.477894 0.041532 
-0.224969 -0.449899 0.225307 
-0.150031 -0.449899 0.225307 
-0.225000 -0.449931 0.270369 
-0.224846 -0.449773 0.045061 
-0.149908 -0.449773 0.045061 
-0.224877 -0.449805 0.090123 
0.074908 -0.449773 0.045061 
0.149846 -0.449773 0.045061 
0.074877 -0.449805 0.090123 
0.329856 -0.113014 0.005812 
0.329856 -0.113014 0.003487 
0.329856 -0.339063 -0.000000 
0.329856 -0.339063 0.001162 
-0.303465 -0.447116 0.222483 
-0.306117 -0.449767 0.222483 
-0.303465 -0.447116 0.050247 
-0.306117 -0.449767 0.050247 
-0.314073 -0.457719 0.050247 
-0.316725 -0.460370 0.050247 
0.329856 -0.113014 0.285711 
0.329856 -0.113014 0.283386 
0.329856 -0.339063 0.279900 
0.329856 -0.339063 0.281062 
-0.296898 -0.453687 0.136365 
-0.299549 -0.456339 0.136365 
-0.296898 -0.453687 0.308601 
-0.299549 -0.456339 0.308601 
-0.307504 -0.464295 0.308601 
-0.310156 -0.466947 0.308601 
-0.318566 -0.338773 0.289197 
-0.322328 -0.339066 0.289197 
-0.303516 -0.337600 0.289197 
-0.307279 -0.337893 0.289197 
-0.303516 0.112142 0.289197 
-0.307279 0.111849 0.289197 
-0.326091 -0.113310 -0.000000 
-0.322328 -0.113606 -0.000000 
-0.326091 0.338788 0.000000 
-0.322328 0.338493 0.000000 
-0.311041 0.337605 0.000000 
-0.307279 0.337309 0.000000 
0.226278 0.468552 0.000000 
0.226571 0.472314 0.000000 
0.225108 0.453504 0.000000 
0.225400 0.457266 0.000000 
-0.074646 0.453504 0.000000 
-0.074353 0.457266 0.000000 
0.075816 -0.476076 0.279900 
0.076109 -0.472314 0.279900 
-0.226278 -0.476076 0.279900 
-0.225986 -0.472314 0.279900 
-0.225108 -0.461028 0.279900 
-0.224815 -0.457266 0.279900 
0.226278 0.468552 0.351261 
0.226571 0.472314 0.351261 
0.225108 0.453504 0.351261 
0.225400 0.457266 0.351261 
-0.074646 0.453504 0.351261 
-0.074353 0.457266 0.351261 
0.318568 -0.338773 0.351261 
0.322331 -0.339066 0.351261 
0.303517 -0.337600 0.351261 
0.307279 -0.337893 0.351261 
0.303517 0.112142 0.351261 
0.307279 0.111849 0.351261 
0.318568 -0.338773 -0.000000 
0.322331 -0.339066 -0.000000 
0.303517 -0.337600 -0.000000 
0.307279 -0.337893 -0.000000 
0.303517 0.112142 0.000000 
0.307279 0.111849 0.000000 
0.326093 -0.113310 0.009300 
0.322331 -0.113606 0.009300 
0.326093 0.338788 0.009300 
0.322331 0.338493 0.009300 
0.311042 0.337605 0.009300 
0.307279 0.337309 0.009300 
0.312507 -0.469086 0.136365 
0.309856 -0.466433 0.136365 
0.312507 -0.469086 0.308601 
0.309856 -0.466433 0.308601 
0.301901 -0.458476 0.308601 
0.299249 -0.455824 0.308601 
-0.308903 0.452088 0.308601 
-0.306251 0.449440 0.308601 
-0.319509 0.462679 0.308601 
-0.316858 0.460031 0.308601 
-0.319509 0.462679 0.136365 
-0.316858 0.460031 0.136365 
-0.297032 0.453331 0.222483 
-0.299682 0.455982 0.222483 
-0.297032 0.453331 0.050247 
-0.299682 0.455982 0.050247 
-0.307634 0.463934 0.050247 
-0.310284 0.466584 0.050247 
0.329856 -0.113014 0.357030 
0.329856 -0.113014 0.354723 
0.329856 -0.339063 0.351261 
0.329856 -0.339063 0.352415 
0.321735 -0.465156 0.308601 
0.320913 -0.465979 0.308601 
0.317625 -0.469270 0.222483 
0.319269 -0.467624 0.222483 
0.319744 0.467041 0.136365 
0.318098 0.468686 0.136365 
0.315630 0.471153 0.050247 
0.316453 0.470331 0.050247 
0.074938 -0.337306 -0.000000 
0.074938 -0.224871 -0.000000 
0.149877 -0.337306 -0.000000 
-0.224815 -0.337306 -0.000000 
-0.224815 -0.224871 -0.000000 
-0.149877 -0.337306 -0.000000 
-0.224815 0.112435 0.000000 
-0.224815 0.224871 0.000000 
-0.149877 0.112435 0.000000 
-0.319565 -0.468139 0.136365 
-0.317923 -0.469784 0.136365 
-0.315459 -0.472251 0.050247 
-0.316280 -0.471429 0.050247 
0.205953 0.466646 0.041532 
0.205953 0.470396 0.041532 
0.205953 0.451649 0.041532 
0.205953 0.455398 0.041532 
0.205953 0.451649 0.178910 
0.205953 0.455398 0.178910 
-0.322161 0.465327 0.308601 
-0.321339 0.466147 0.308601 
-0.318051 0.469426 0.222483 
-0.319695 0.467786 0.222483 
0.303648 0.446018 0.222483 
0.306300 0.448669 0.222483 
0.303648 0.446018 0.050247 
0.306300 0.448669 0.050247 
0.314256 0.456621 0.050247 
0.316908 0.459272 0.050247 
0.307678 0.463192 0.050247 
0.310329 0.465846 0.050247 
0.297076 0.452578 0.050247 
0.299727 0.455232 0.050247 
0.297076 0.452578 0.222483 
0.299727 0.455232 0.222483 
0.211765 0.477894 0.110221 
0.209440 0.477894 0.110221 
0.205953 0.477894 0.041532 
0.207116 0.477894 0.041532 
-0.204588 0.474145 0.110221 
-0.204588 0.470396 0.110221 
-0.204588 0.474145 0.247599 
-0.204588 0.470396 0.247599 
-0.204588 0.459148 0.247599 
-0.204588 0.455398 0.247599 
0.215253 0.474145 0.110221 
0.215253 0.470396 0.110221 
0.215253 0.474145 0.247599 
0.215253 0.470396 0.247599 
0.215253 0.459148 0.247599 
0.215253 0.455398 0.247599 
0.075524 0.479838 0.285711 
0.075524 0.479838 0.283386 
0.226571 0.479838 0.279900 
0.226571 0.479838 0.281062 
-0.075524 -0.479838 0.285711 
-0.075524 -0.479838 0.283386 
-0.226571 -0.479838 0.279900 
-0.226571 -0.479838 0.281062 
0.205953 -0.474271 0.110221 
0.205953 -0.470522 0.110221 
0.205953 -0.474271 0.247599 
0.205953 -0.470522 0.247599 
0.205953 -0.459274 0.247599 
0.205953 -0.455525 0.247599 
0.215253 -0.474271 0.178910 
0.215253 -0.470522 0.178910 
0.215253 -0.474271 0.041532 
0.215253 -0.470522 0.041532 
0.215253 -0.459274 0.041532 
0.215253 -0.455525 0.041532 
-0.204588 -0.478020 0.247599 
-0.205750 -0.478020 0.247599 
-0.210400 -0.478020 0.178910 
-0.208075 -0.478020 0.178910 
0.075524 0.479838 0.005813 
0.075524 0.479838 0.003488 
0.226571 0.479838 0.000000 
0.226571 0.479838 0.001163 
-0.075524 -0.479838 0.005812 
-0.075524 -0.479838 0.003487 
-0.226571 -0.479838 -0.000000 
-0.226571 -0.479838 0.001162 
0.324334 0.331020 0.136749 
0.320585 0.331020 0.136749 
0.324334 0.331020 0.309496 
0.320585 0.331020 0.309496 
0.309337 0.331020 0.309496 
0.305588 0.331020 0.309496 
0.324334 -0.326409 0.224223 
0.320585 -0.326409 0.224223 
0.324334 -0.326409 0.051476 
0.320585 -0.326409 0.051476 
0.309337 -0.326409 0.051476 
0.305588 -0.326409 0.051476 
-0.329130 0.336821 0.136749 
-0.329130 0.334501 0.136749 
-0.329130 0.331020 0.050375 
-0.329130 0.332180 0.050375 
0.075524 0.479838 0.357030 
0.075524 0.479838 0.354723 
0.226571 0.479838 0.351261 
0.226571 0.479838 0.352415 
0.221106 -0.110550 0.003543 
0.147405 -0.110550 0.003543 
0.221106 -0.221100 0.003543 
0.221106 0.331650 0.003543 
0.147405 0.331650 0.003543 
0.221106 0.221100 0.003543 
-0.073698 0.331650 0.003543 
-0.147399 0.331650 0.003543 
-0.073698 0.221100 0.003543 
-0.302885 0.340302 0.223122 
-0.306634 0.340302 0.223122 
-0.302885 0.340302 0.050375 
-0.306634 0.340302 0.050375 
-0.317882 0.340302 0.050375 
-0.321631 0.340302 0.050375 
-0.302885 -0.335700 0.137850 
-0.306634 -0.335700 0.137850 
-0.302885 -0.335700 0.310597 
-0.306634 -0.335700 0.310597 
-0.317882 -0.335700 0.310597 
-0.321631 -0.335700 0.310597 
-0.000436 0.441112 0.226636 
-0.073991 0.441330 0.182018 
-0.000145 0.440677 0.315873 
-0.073555 0.440677 0.315873 
-0.220664 0.441112 0.226636 
-0.220810 0.441330 0.182018 
0.299877 0.112372 0.180246 
0.299908 -0.000094 0.225307 
0.299877 0.337369 0.180246 
0.299908 0.337401 0.225308 
0.299969 0.112467 0.315430 
0.299969 -0.000031 0.315430 
-0.299877 -0.112372 0.180246 
-0.299908 0.000094 0.225307 
-0.299877 -0.337369 0.180246 
-0.299908 -0.337401 0.225307 
-0.299969 -0.112467 0.315430 
-0.299969 0.000031 0.315430 
-0.074877 0.449868 0.180246 
0.000092 0.449899 0.225308 
-0.224877 0.449868 0.180246 
-0.224908 0.449899 0.225308 
-0.074969 0.449962 0.315431 
0.000031 0.449962 0.315431 
0.311127 -0.454554 0.222483 
0.303171 -0.446603 0.222483 
0.308475 -0.451904 0.308601 
0.311127 -0.454554 0.308601 
-0.074477 -0.464916 0.360492 
-0.225524 -0.464916 0.360492 
-0.225785 -0.468646 0.360492 
-0.075262 -0.476107 0.360492 
0.073119 -0.441324 0.182017 
-0.000436 -0.441543 0.137399 
0.220521 -0.441324 0.182017 
0.220667 -0.441543 0.137399 
0.073558 -0.441981 0.048162 
-0.000143 -0.441981 0.048162 
-0.294219 -0.109674 0.182018 
-0.294365 0.000657 0.137399 
-0.294219 -0.330774 0.182018 
-0.294365 -0.330993 0.137399 
-0.294656 -0.110331 0.048162 
-0.294656 0.000219 0.048162 
0.294076 0.000659 0.226636 
0.294222 0.110990 0.182018 
0.293783 0.000223 0.315873 
0.293783 0.110337 0.315873 
0.294076 0.330999 0.226636 
0.294222 0.331216 0.182018 
-0.049288 0.477882 0.178351 
-0.049288 0.477882 0.177189 
-0.049288 0.477882 0.180674 
-0.296023 -0.106532 0.360492 
-0.294432 -0.108916 0.360492 
-0.293637 -0.110108 0.360492 
0.297614 0.116078 0.360492 
0.298409 0.114885 0.360492 
0.300000 0.112498 0.360492 
0.076591 0.447610 0.360492 
0.075000 0.449994 0.360492 
0.077386 0.446419 0.360492 
-0.298409 0.114885 0.360492 
-0.297614 0.116078 0.360492 
-0.300000 0.112498 0.360492 
0.294432 -0.108916 0.360492 
0.293637 -0.110108 0.360492 
0.296023 -0.106532 0.360492 
0.055006 -0.475512 0.182998 
0.055006 -0.475512 0.185321 
0.055006 -0.475512 0.186483 
-0.049288 0.462885 0.186483 
-0.049288 0.474133 0.186483 
-0.153581 0.466634 0.186483 
-0.153581 0.462885 0.186483 
0.055006 0.462885 0.177189 
0.055006 0.474133 0.177189 
0.159299 0.466634 0.177189 
0.159299 0.462885 0.177189 
-0.049288 -0.460515 0.186483 
-0.049288 -0.449267 0.186483 
-0.153581 -0.456766 0.186483 
-0.153581 -0.460515 0.186483 
0.055006 -0.460515 0.177189 
0.055006 -0.449267 0.177189 
0.159299 -0.456766 0.177189 
0.159299 -0.460515 0.177189 
-0.075524 -0.479838 0.359338 
-0.075524 -0.479838 0.360492 
-0.075524 -0.479838 0.357030 
-0.314133 0.331020 0.136749 
-0.325381 0.331020 0.136749 
-0.317882 0.331020 0.050375 
-0.314133 0.331020 0.050375 
-0.329853 0.113035 0.359338 
-0.329853 0.113035 0.360492 
-0.329853 0.113035 0.357030 
-0.329130 -0.327570 0.137850 
-0.329130 -0.326409 0.137850 
-0.329130 -0.329893 0.137850 
-0.329853 0.113035 0.008138 
-0.329853 0.113035 0.009300 
-0.329853 0.113035 0.005813 
0.313086 -0.335700 0.137850 
0.301838 -0.335700 0.137850 
0.309337 -0.335700 0.051476 
0.313086 -0.335700 0.051476 
-0.329853 -0.113014 0.281062 
-0.329853 -0.113014 0.279900 
-0.329853 -0.113014 0.283386 
0.313086 0.340302 0.223122 
0.301838 0.340302 0.223122 
0.309337 0.340302 0.309496 
0.313086 0.340302 0.309496 
-0.314803 -0.113609 0.279900 
-0.303516 -0.112729 0.279900 
-0.311041 -0.338186 0.279900 
-0.314803 -0.338479 0.279900 
-0.074353 -0.464790 0.009300 
-0.225401 -0.464790 0.009300 
-0.225693 -0.468552 0.009300 
-0.075231 -0.476076 0.009300 
-0.074353 0.464790 0.279900 
-0.225401 0.464790 0.279900 
-0.225693 0.468552 0.279900 
-0.075231 0.476076 0.279900 
0.076047 0.464916 0.360492 
0.075262 0.453724 0.360492 
0.225785 0.461185 0.360492 
0.226047 0.464916 0.360492 
0.076109 0.464790 0.009300 
0.075231 0.453504 0.009300 
0.225693 0.461028 0.009300 
0.225985 0.464790 0.009300 
0.314928 -0.113546 0.360492 
0.303732 -0.112760 0.360492 
0.311196 -0.338281 0.360492 
0.314928 -0.338542 0.360492 
0.314805 -0.113609 0.289197 
0.303517 -0.112729 0.289197 
0.311042 -0.338186 0.289197 
0.314805 -0.338479 0.289197 
-0.314927 0.111978 0.360492 
-0.314927 0.338027 0.360492 
-0.318658 0.338291 0.360492 
-0.326121 0.112771 0.360492 
0.328083 -0.332216 0.224223 
0.328083 -0.334539 0.224223 
0.328083 -0.335700 0.224223 
0.328083 0.334501 0.223122 
0.328083 0.332180 0.223122 
0.328083 0.331020 0.223122 
-0.204588 -0.463023 0.178910 
-0.204588 -0.451775 0.178910 
-0.204588 -0.459274 0.247599 
-0.204588 -0.463023 0.247599 
-0.213888 -0.463023 0.110221 
-0.213888 -0.451775 0.110221 
-0.213888 -0.459274 0.041532 
-0.213888 -0.463023 0.041532 
-0.314803 0.111852 0.009300 
-0.314803 0.337901 0.009300 
-0.318566 0.338197 0.009300 
-0.326091 0.112739 0.009300 
-0.076591 -0.447607 0.360492 
-0.075000 -0.449994 0.360492 
-0.077386 -0.446414 0.360492 
0.076109 0.464790 0.289197 
0.075231 0.453504 0.289197 
0.225693 0.461028 0.289197 
0.225985 0.464790 0.289197 
-0.074353 -0.464790 0.289197 
-0.225401 -0.464790 0.289197 
-0.225693 -0.468552 0.289197 
-0.075231 -0.476076 0.289197 
0.076109 -0.464790 0.351261 
0.075231 -0.453504 0.351261 
0.225693 -0.461028 0.351261 
0.225985 -0.464790 0.351261 
0.076109 -0.464790 -0.000000 
0.075231 -0.453504 -0.000000 
0.225693 -0.461028 -0.000000 
0.225985 -0.464790 -0.000000 
-0.314803 -0.113609 0.351261 
-0.303516 -0.112729 0.351261 
-0.311041 -0.338186 0.351261 
-0.314803 -0.338479 0.351261 
0.314805 0.111852 0.279900 
0.314805 0.337901 0.279900 
0.318568 0.338197 0.279900 
0.326093 0.112739 0.279900 
0.209440 -0.478020 0.178910 
0.207116 -0.478020 0.178910 
0.205953 -0.478020 0.178910 
-0.213888 0.462897 0.178910 
-0.213888 0.462897 0.247599 
-0.213888 0.466646 0.247599 
-0.213888 0.474145 0.178910 
-0.314133 -0.326409 0.224223 
-0.325381 -0.326409 0.224223 
-0.317882 -0.326409 0.310597 
-0.314133 -0.326409 0.310597 
-0.205750 0.477894 0.110221 
-0.204588 0.477894 0.110221 
-0.208075 0.477894 0.110221 
0.074877 -0.449868 0.180246 
-0.000092 -0.449899 0.225307 
0.224877 -0.449868 0.180246 
0.224908 -0.449899 0.225307 
0.074969 -0.449962 0.315430 
-0.000031 -0.449962 0.315430 
0.329856 -0.113014 0.008137 
0.329856 -0.113014 0.009300 
0.329856 -0.113014 0.005812 
-0.311421 -0.455068 0.222483 
-0.319377 -0.463021 0.222483 
-0.314073 -0.457719 0.308601 
-0.311421 -0.455068 0.308601 
0.329856 -0.113014 0.288035 
0.329856 -0.113014 0.289197 
0.329856 -0.113014 0.285711 
-0.304852 -0.461643 0.136365 
-0.312807 -0.469599 0.136365 
-0.307504 -0.464295 0.050247 
-0.304852 -0.461643 0.050247 
-0.314803 0.111852 0.289197 
-0.314803 0.337901 0.289197 
-0.318566 0.338197 0.289197 
-0.326091 0.112739 0.289197 
-0.314803 -0.113609 -0.000000 
-0.303516 -0.112729 -0.000000 
-0.311041 -0.338186 -0.000000 
-0.314803 -0.338479 -0.000000 
-0.074353 0.464790 0.000000 
-0.225401 0.464790 0.000000 
-0.225693 0.468552 0.000000 
-0.075231 0.476076 0.000000 
0.076109 -0.464790 0.279900 
0.075231 -0.453504 0.279900 
0.225693 -0.461028 0.279900 
0.225985 -0.464790 0.279900 
-0.074353 0.464790 0.351261 
-0.225401 0.464790 0.351261 
-0.225693 0.468552 0.351261 
-0.075231 0.476076 0.351261 
0.314805 0.111852 0.351261 
0.314805 0.337901 0.351261 
0.318568 0.338197 0.351261 
0.326093 0.112739 0.351261 
0.314805 0.111852 0.000000 
0.314805 0.337901 0.000000 
0.318568 0.338197 0.000000 
0.326093 0.112739 0.000000 
0.314805 -0.113609 0.009300 
0.303517 -0.112729 0.009300 
0.311042 -0.338186 0.009300 
0.314805 -0.338479 0.009300 
0.304552 -0.461128 0.136365 
0.296598 -0.453171 0.136365 
0.301901 -0.458476 0.050247 
0.304552 -0.461128 0.050247 
-0.311554 0.454736 0.136365 
-0.311554 0.454736 0.050247 
-0.308903 0.452088 0.050247 
-0.303600 0.446792 0.136365 
-0.304983 0.461283 0.222483 
-0.312935 0.469235 0.222483 
-0.307634 0.463934 0.308601 
-0.304983 0.461283 0.308601 
0.329856 -0.113014 0.359338 
0.329856 -0.113014 0.360492 
0.329856 -0.113014 0.357030 
0.317625 -0.469270 0.222483 
0.315981 -0.470915 0.222483 
0.315159 -0.471738 0.222483 
0.321389 0.465396 0.136365 
0.322212 0.464574 0.136365 
0.319744 0.467041 0.136365 
0.000000 0.112435 0.000000 
0.074938 0.000000 0.000000 
0.000000 0.337306 0.000000 
0.074938 0.337306 0.000000 
0.224815 0.112435 0.000000 
0.224815 0.000000 0.000000 
-0.321208 -0.466494 0.136365 
-0.322029 -0.465672 0.136365 
-0.319565 -0.468139 0.136365 
0.205953 0.462897 0.178910 
0.205953 0.462897 0.247599 
0.205953 0.466646 0.247599 
0.205953 0.474145 0.178910 
-0.318051 0.469426 0.222483 
-0.316407 0.471065 0.222483 
-0.315585 0.471885 0.222483 
0.311604 0.453970 0.222483 
0.319560 0.461923 0.222483 
0.314256 0.456621 0.308601 
0.311604 0.453970 0.308601 
0.305028 0.460539 0.222483 
0.305028 0.460539 0.308601 
0.307678 0.463192 0.308601 
0.312979 0.468499 0.222483 
0.214090 0.477894 0.110221 
0.215253 0.477894 0.110221 
0.211765 0.477894 0.110221 
-0.204588 0.462897 0.110221 
-0.204588 0.451649 0.110221 
-0.204588 0.459148 0.041532 
-0.204588 0.462897 0.041532 
0.215253 0.462897 0.110221 
0.215253 0.451649 0.110221 
0.215253 0.459148 0.041532 
0.215253 0.462897 0.041532 
0.075524 0.479838 0.288035 
0.075524 0.479838 0.289197 
0.075524 0.479838 0.285711 
-0.075524 -0.479838 0.288035 
-0.075524 -0.479838 0.289197 
-0.075524 -0.479838 0.285711 
0.205953 -0.463023 0.110221 
0.205953 -0.451775 0.110221 
0.205953 -0.459274 0.041532 
0.205953 -0.463023 0.041532 
0.215253 -0.463023 0.178910 
0.215253 -0.451775 0.178910 
0.215253 -0.459274 0.247599 
0.215253 -0.463023 0.247599 
-0.210400 -0.478020 0.178910 
-0.212725 -0.478020 0.178910 
-0.213888 -0.478020 0.178910 
0.075524 0.479838 0.008138 
0.075524 0.479838 0.009300 
0.075524 0.479838 0.005813 
-0.075524 -0.479838 0.008137 
-0.075524 -0.479838 0.009300 
-0.075524 -0.479838 0.005812 
0.313086 0.331020 0.136749 
0.301838 0.331020 0.136749 
0.309337 0.331020 0.050375 
0.313086 0.331020 0.050375 
0.313086 -0.326409 0.224223 
0.301838 -0.326409 0.224223 
0.309337 -0.326409 0.310597 
0.313086 -0.326409 0.310597 
-0.329130 0.339142 0.136749 
-0.329130 0.340302 0.136749 
-0.329130 0.336821 0.136749 
0.075524 0.479838 0.359338 
0.075524 0.479838 0.360492 
0.075524 0.479838 0.357030 
-0.073698 0.000000 0.003543 
0.000003 -0.110550 0.003543 
-0.221100 0.000000 0.003543 
-0.221100 -0.110550 0.003543 
-0.073698 -0.331650 0.003543 
0.000003 -0.331650 0.003543 
-0.314133 0.340302 0.223122 
-0.325381 0.340302 0.223122 
-0.317882 0.340302 0.309496 
-0.314133 0.340302 0.309496 
-0.314133 -0.335700 0.137850 
-0.325381 -0.335700 0.137850 
-0.317882 -0.335700 0.051476 
-0.314133 -0.335700 0.051476 
0.073558 0.441983 0.048162 
-0.000143 0.441983 0.048162 
0.220667 0.441548 0.137399 
0.220521 0.441330 0.182018 
0.073119 0.441330 0.182018 
-0.000436 0.441548 0.137399 
0.299846 -0.337401 0.135184 
0.299877 -0.337432 0.180246 
0.299785 -0.112467 0.045061 
0.299785 -0.000031 0.045062 
0.299846 -0.000094 0.135185 
0.299877 -0.112561 0.180246 
-0.299846 0.337401 0.135185 
-0.299877 0.337432 0.180246 
-0.299785 0.112467 0.045062 
-0.299785 0.000031 0.045061 
-0.299846 0.000094 0.135184 
-0.299877 0.112561 0.180246 
0.224908 0.449836 0.135185 
0.224938 0.449868 0.180246 
0.074969 0.449773 0.045062 
0.000031 0.449773 0.045062 
0.000092 0.449836 0.135185 
0.075062 0.449868 0.180246 
0.319083 -0.462506 0.136365 
0.313779 -0.457205 0.050247 
0.311127 -0.454554 0.050247 
0.311127 -0.454554 0.136365 
0.225785 -0.461185 0.360492 
0.226047 -0.464916 0.360492 
0.075262 -0.453724 0.360492 
0.076047 -0.464916 0.360492 
-0.220664 -0.441105 0.226636 
-0.220810 -0.441324 0.182017 
-0.073555 -0.440667 0.315873 
-0.000145 -0.440667 0.315873 
-0.000436 -0.441105 0.226636 
-0.073991 -0.441324 0.182017 
-0.294074 0.330999 0.226636 
-0.294219 0.331216 0.182018 
-0.293783 0.110337 0.315873 
-0.293783 0.000223 0.315873 
-0.294074 0.000659 0.226636 
-0.294219 0.110990 0.182018 
0.294661 -0.110331 0.048162 
0.294661 0.000219 0.048162 
0.294368 -0.330993 0.137399 
0.294222 -0.330774 0.182018 
0.294222 -0.109674 0.182018 
0.294368 0.000657 0.137399 
0.055006 0.477882 0.185321 
0.055006 0.477882 0.186483 
0.055006 0.477882 0.182998 
-0.073409 0.440460 0.360492 
-0.072614 0.441652 0.360492 
-0.071023 0.444035 0.360492 
-0.049288 -0.475512 0.177189 
-0.049288 -0.475512 0.178351 
-0.049288 -0.475512 0.180674 
0.055006 0.451637 0.186483 
0.159299 0.459136 0.186483 
0.159299 0.462885 0.186483 
0.055006 0.462885 0.186483 
-0.049288 0.451637 0.177189 
-0.153581 0.459136 0.177189 
-0.153581 0.462885 0.177189 
-0.049288 0.462885 0.177189 
0.055006 -0.471763 0.186483 
0.159299 -0.464264 0.186483 
0.159299 -0.460515 0.186483 
0.055006 -0.460515 0.186483 
-0.049288 -0.471763 0.177189 
-0.153581 -0.464264 0.177189 
-0.153581 -0.460515 0.177189 
-0.049288 -0.460515 0.177189 
0.075524 -0.479838 0.352415 
0.075524 -0.479838 0.351261 
0.075524 -0.479838 0.354723 
-0.302885 0.331020 0.223122 
-0.310384 0.331020 0.309496 
-0.314133 0.331020 0.309496 
-0.314133 0.331020 0.223122 
-0.329853 -0.113014 0.352415 
-0.329853 -0.113014 0.351261 
-0.329853 -0.113014 0.354723 
-0.329130 -0.334539 0.224223 
-0.329130 -0.335700 0.224223 
-0.329130 -0.332216 0.224223 
-0.329853 -0.113014 0.001162 
-0.329853 -0.113014 -0.000000 
-0.329853 -0.113014 0.003487 
0.324334 -0.335700 0.224223 
0.316835 -0.335700 0.310597 
0.313086 -0.335700 0.310597 
0.313086 -0.335700 0.224223 
-0.329853 0.113035 0.288035 
-0.329853 0.113035 0.289197 
-0.329853 0.113035 0.285711 
0.324334 0.340302 0.136749 
0.316835 0.340302 0.050375 
0.313086 0.340302 0.050375 
0.313086 0.340302 0.136749 
-0.326091 0.112739 0.279900 
-0.318566 0.338197 0.279900 
-0.314803 0.337901 0.279900 
-0.314803 0.111852 0.279900 
0.225693 -0.461028 0.009300 
0.225985 -0.464790 0.009300 
0.075231 -0.453504 0.009300 
0.076109 -0.464790 0.009300 
0.225693 0.461028 0.279900 
0.225985 0.464790 0.279900 
0.075231 0.453504 0.279900 
0.076109 0.464790 0.279900 
-0.075262 0.476107 0.360492 
-0.225785 0.468646 0.360492 
-0.225524 0.464916 0.360492 
-0.074477 0.464916 0.360492 
-0.075231 0.476076 0.009300 
-0.225693 0.468552 0.009300 
-0.225401 0.464790 0.009300 
-0.074353 0.464790 0.009300 
0.326124 0.112771 0.360492 
0.318660 0.338291 0.360492 
0.314928 0.338027 0.360492 
0.314928 0.111978 0.360492 
0.326093 0.112739 0.289197 
0.318568 0.338197 0.289197 
0.314805 0.337901 0.289197 
0.314805 0.111852 0.289197 
-0.311195 -0.338281 0.360492 
-0.314927 -0.338542 0.360492 
-0.303732 -0.112760 0.360492 
-0.314927 -0.113546 0.360492 
0.328083 -0.326409 0.137850 
0.328083 -0.327570 0.137850 
0.328083 -0.329893 0.137850 
0.328083 0.340302 0.136749 
0.328083 0.339142 0.136749 
0.328083 0.336821 0.136749 
-0.204588 -0.474271 0.110221 
-0.204588 -0.466772 0.041532 
-0.204588 -0.463023 0.041532 
-0.204588 -0.463023 0.110221 
-0.213888 -0.474271 0.178910 
-0.213888 -0.466772 0.247599 
-0.213888 -0.463023 0.247599 
-0.213888 -0.463023 0.178910 
-0.311041 -0.338186 0.009300 
-0.314803 -0.338479 0.009300 
-0.303516 -0.112729 0.009300 
-0.314803 -0.113609 0.009300 
0.073409 -0.440448 0.360492 
0.072614 -0.441641 0.360492 
0.071023 -0.444028 0.360492 
-0.075231 0.476076 0.289197 
-0.225693 0.468552 0.289197 
-0.225401 0.464790 0.289197 
-0.074353 0.464790 0.289197 
0.225693 -0.461028 0.289197 
0.225985 -0.464790 0.289197 
0.075231 -0.453504 0.289197 
0.076109 -0.464790 0.289197 
-0.075231 -0.476076 0.351261 
-0.225693 -0.468552 0.351261 
-0.225401 -0.464790 0.351261 
-0.074353 -0.464790 0.351261 
-0.075231 -0.476076 -0.000000 
-0.225693 -0.468552 -0.000000 
-0.225401 -0.464790 -0.000000 
-0.074353 -0.464790 -0.000000 
-0.326091 0.112739 0.351261 
-0.318566 0.338197 0.351261 
-0.314803 0.337901 0.351261 
-0.314803 0.111852 0.351261 
0.311042 -0.338186 0.279900 
0.314805 -0.338479 0.279900 
0.303517 -0.112729 0.279900 
0.314805 -0.113609 0.279900 
0.215253 -0.478020 0.110221 
0.214090 -0.478020 0.110221 
0.211765 -0.478020 0.110221 
-0.213888 0.459148 0.041532 
-0.213888 0.462897 0.041532 
-0.213888 0.451649 0.110221 
-0.213888 0.462897 0.110221 
-0.302885 -0.326409 0.137850 
-0.310384 -0.326409 0.051476 
-0.314133 -0.326409 0.051476 
-0.314133 -0.326409 0.137850 
-0.212725 0.477894 0.178910 
-0.213888 0.477894 0.178910 
-0.210400 0.477894 0.178910 
-0.224908 -0.449836 0.135184 
-0.224938 -0.449868 0.180246 
-0.074969 -0.449773 0.045061 
