0.275752 0.014466 0.420879 
0.312674 -0.000480 0.423599 
0.275827 0.014755 0.421463 
0.312748 -0.000191 0.424182 
0.275944 0.015137 0.421974 
0.313020 0.000652 0.425114 
0.276099 0.015598 0.422394 
0.276287 0.016119 0.422706 
0.313421 0.001735 0.425618 
0.276500 0.016681 0.422898 
0.276730 0.017261 0.422963 
0.313652 0.002315 0.425683 
0.276969 0.017839 0.422898 
0.313890 0.002893 0.425618 
0.277206 0.018390 0.422706 
0.314128 0.003444 0.425426 
0.277434 0.018895 0.422394 
0.314355 0.003950 0.425114 
0.277642 0.019334 0.421974 
0.314564 0.004388 0.424694 
0.277824 0.019690 0.421463 
0.314893 0.005004 0.423599 
0.277972 0.019950 0.420879 
0.278081 0.020102 0.420246 
0.315067 0.005197 0.422307 
0.278145 0.020142 0.419587 
0.315085 0.005123 0.421648 
0.278164 0.020069 0.418928 
0.278136 0.019883 0.418295 
0.314983 0.004648 0.420431 
0.278062 0.019594 0.417711 
0.277945 0.019212 0.417200 
0.314866 0.004266 0.419919 
0.277789 0.018752 0.416780 
0.314710 0.003806 0.419500 
0.277601 0.018231 0.416468 
0.314522 0.003285 0.419188 
0.277388 0.017669 0.416276 
0.314079 0.002142 0.418931 
0.277158 0.017088 0.416211 
0.313840 0.001565 0.418995 
0.276919 0.016511 0.416276 
0.313603 0.001013 0.419188 
0.276682 0.015959 0.416468 
0.313376 0.000508 0.419500 
0.276454 0.015454 0.416780 
0.276246 0.015015 0.417200 
0.313167 0.000069 0.419919 
0.276064 0.014659 0.417711 
0.312985 -0.000287 0.420431 
0.275916 0.014400 0.418295 
0.312865 0.000192 0.424694 
0.312729 -0.000699 0.421648 
0.275808 0.014247 0.418928 
0.313208 0.001173 0.425426 
0.314745 0.004744 0.424182 
0.315002 0.005156 0.422965 
0.315057 0.004938 0.421015 
0.314309 0.002723 0.418995 
0.312837 -0.000546 0.421015 
0.313079 -0.000907 0.415742 
0.276140 0.014113 0.413681 
0.276158 0.014039 0.413022 
0.313089 -0.000648 0.417034 
0.276168 0.014298 0.414314 
0.276242 0.014587 0.414898 
0.313280 0.000023 0.418129 
0.276359 0.014969 0.415409 
0.313436 0.000484 0.418549 
0.276514 0.015430 0.415829 
0.313624 0.001005 0.418861 
0.276702 0.015951 0.416141 
0.313837 0.001567 0.419053 
0.276916 0.016512 0.416333 
0.314067 0.002147 0.419118 
0.277146 0.017093 0.416398 
0.314306 0.002724 0.419053 
0.277384 0.017670 0.416333 
0.314543 0.003276 0.418861 
0.277622 0.018222 0.416141 
0.277849 0.018727 0.415829 
0.314979 0.004220 0.418129 
0.278058 0.019166 0.415409 
0.315161 0.004576 0.417617 
0.278240 0.019522 0.414898 
0.315309 0.004836 0.417034 
0.278388 0.019781 0.414314 
0.315417 0.004988 0.416400 
0.278496 0.019934 0.413681 
0.315482 0.005028 0.415742 
0.278561 0.019974 0.413022 
0.315501 0.004954 0.415083 
0.278580 0.019900 0.412363 
0.278551 0.019715 0.411730 
0.315472 0.004769 0.414450 
0.278477 0.019426 0.411146 
0.315398 0.004480 0.413866 
0.278360 0.019044 0.410635 
0.315281 0.004098 0.413354 
0.278205 0.018583 0.410215 
0.315126 0.003637 0.412935 
0.278017 0.018062 0.409903 
0.314938 0.003116 0.412623 
0.277804 0.017501 0.409711 
0.314725 0.002555 0.412430 
0.277573 0.016920 0.409646 
0.314256 0.001397 0.412430 
0.277335 0.016343 0.409711 
0.314018 0.000845 0.412623 
0.277097 0.015791 0.409903 
0.276870 0.015286 0.410215 
0.313582 -0.000099 0.413354 
0.276661 0.014847 0.410635 
0.313401 -0.000455 0.413866 
0.276479 0.014491 0.411146 
0.276331 0.014232 0.411730 
0.313163 -0.000359 0.417617 
0.313144 -0.000867 0.415083 
0.276223 0.014079 0.412363 
0.313061 -0.000833 0.416400 
0.314771 0.003781 0.418549 
0.314494 0.001974 0.412366 
0.313791 0.000340 0.412935 
0.313253 -0.000714 0.414450 
0.276593 0.013863 0.406159 
0.313495 -0.001009 0.409537 
0.276574 0.013937 0.406817 
0.276602 0.014122 0.407451 
0.313598 -0.000535 0.410754 
0.276676 0.014411 0.408034 
0.313715 -0.000152 0.411266 
0.276793 0.014793 0.408546 
0.313870 0.000308 0.411685 
0.276949 0.015254 0.408966 
0.314058 0.000829 0.411997 
0.277137 0.015775 0.409278 
0.277350 0.016337 0.409470 
0.314271 0.001391 0.412190 
0.277580 0.016917 0.409535 
0.314740 0.002549 0.412190 
0.277819 0.017495 0.409470 
0.278056 0.018046 0.409278 
0.314977 0.003100 0.411997 
0.278284 0.018551 0.408966 
0.315205 0.003605 0.411685 
0.278492 0.018990 0.408546 
0.315414 0.004044 0.411266 
0.278674 0.019346 0.408034 
0.315595 0.004400 0.410754 
0.278822 0.019606 0.407451 
0.315743 0.004660 0.410170 
0.278931 0.019758 0.406817 
0.315916 0.004852 0.408878 
0.278995 0.019798 0.406159 
0.315935 0.004779 0.408220 
0.279014 0.019724 0.405500 
0.278986 0.019539 0.404867 
0.315833 0.004304 0.407003 
0.278912 0.019250 0.404283 
0.278795 0.018868 0.403771 
0.315716 0.003922 0.406491 
0.278639 0.018408 0.403351 
0.315372 0.002941 0.405759 
0.278451 0.017886 0.403040 
0.315159 0.002379 0.405567 
0.278238 0.017325 0.402847 
0.314929 0.001798 0.405502 
0.278008 0.016744 0.402783 
0.314690 0.001221 0.405567 
0.277769 0.016167 0.402847 
0.277532 0.015615 0.403040 
0.314225 0.000164 0.406071 
0.277304 0.015110 0.403351 
0.314017 -0.000275 0.406491 
0.277096 0.014671 0.403771 
0.276914 0.014315 0.404283 
0.313835 -0.000631 0.407003 
0.276766 0.014056 0.404867 
0.313579 -0.001043 0.408220 
0.276657 0.013903 0.405500 
0.313514 -0.001083 0.408878 
0.313523 -0.000824 0.410170 
0.314501 0.001971 0.412254 
0.315852 0.004812 0.409537 
0.315907 0.004593 0.407586 
0.315560 0.003462 0.406071 
0.314453 0.000669 0.405759 
0.313687 -0.000890 0.407586 
0.277008 0.013695 0.399594 
0.313911 -0.001177 0.402972 
0.276990 0.013769 0.400252 
0.313939 -0.000992 0.403605 
0.277018 0.013954 0.400886 
0.277092 0.014243 0.401469 
0.314013 -0.000703 0.404189 
0.277209 0.014625 0.401981 
0.314130 -0.000321 0.404701 
0.277364 0.015086 0.402401 
0.314474 0.000661 0.405432 
0.277552 0.015607 0.402713 
0.314687 0.001222 0.405625 
0.277766 0.016168 0.402905 
0.277996 0.016749 0.402970 
0.315155 0.002380 0.405625 
0.278234 0.017326 0.402905 
0.315393 0.002932 0.405432 
0.278472 0.017878 0.402713 
0.278699 0.018383 0.402401 
0.315620 0.003437 0.405120 
0.278908 0.018822 0.401981 
0.316011 0.004232 0.404189 
0.279090 0.019178 0.401469 
0.279238 0.019437 0.400886 
0.316267 0.004644 0.402972 
0.279346 0.019590 0.400252 
0.279411 0.019630 0.399594 
0.316332 0.004684 0.402313 
0.279429 0.019556 0.398935 
0.316351 0.004610 0.401655 
0.279401 0.019371 0.398302 
0.316248 0.004136 0.400438 
0.279327 0.019082 0.397718 
0.279210 0.018700 0.397206 
0.316131 0.003754 0.399926 
0.279055 0.018239 0.396787 
0.315976 0.003293 0.399506 
0.278867 0.017718 0.396475 
0.315575 0.002211 0.399002 
0.278653 0.017157 0.396282 
0.315344 0.001630 0.398937 
0.278423 0.016576 0.396218 
0.315106 0.001053 0.399002 
0.278185 0.015999 0.396282 
0.314868 0.000501 0.399194 
0.277947 0.015447 0.396475 
0.314641 -0.000004 0.399506 
0.277720 0.014942 0.396787 
0.277511 0.014503 0.397206 
0.314250 -0.000799 0.400438 
0.277329 0.014147 0.397718 
0.277181 0.013888 0.398302 
0.315829 0.003876 0.404701 
0.313994 -0.001211 0.401655 
0.277073 0.013735 0.398935 
0.313929 -0.001251 0.402313 
0.314286 0.000140 0.405120 
0.314917 0.001803 0.405689 
0.316159 0.004491 0.403605 
0.316322 0.004425 0.401021 
0.315788 0.002772 0.399194 
0.314432 -0.000443 0.399926 
0.314103 -0.001058 0.401021 
0.314345 -0.001419 0.395748 
0.277405 0.013601 0.393687 
0.277424 0.013527 0.393029 
0.314355 -0.001160 0.397040 
0.277433 0.013786 0.394321 
0.277507 0.014075 0.394904 
0.314429 -0.000871 0.397624 
0.277624 0.014457 0.395416 
0.314546 -0.000489 0.398136 
0.277780 0.014918 0.395836 
0.314889 0.000493 0.398867 
0.277968 0.015439 0.396148 
0.315102 0.001054 0.399060 
0.278181 0.016000 0.396340 
0.278411 0.016581 0.396405 
0.315571 0.002212 0.399060 
0.278650 0.017158 0.396340 
0.315808 0.002764 0.398867 
0.278887 0.017710 0.396148 
0.279115 0.018215 0.395836 
0.316036 0.003269 0.398555 
0.279323 0.018654 0.395416 
0.316426 0.004064 0.397624 
0.279505 0.019010 0.394904 
0.316574 0.004323 0.397040 
0.279653 0.019269 0.394321 
0.279762 0.019422 0.393687 
0.316747 0.004516 0.395748 
0.279826 0.019462 0.393029 
0.279845 0.019388 0.392370 
0.316766 0.004442 0.395090 
0.279817 0.019203 0.391737 
0.316664 0.003968 0.393873 
0.279743 0.018914 0.391153 
0.279626 0.018532 0.390641 
0.316547 0.003586 0.393361 
0.279470 0.018071 0.390222 
0.316391 0.003125 0.392941 
0.279282 0.017550 0.389910 
0.316203 0.002604 0.392629 
0.279069 0.016988 0.389717 
0.315760 0.001462 0.392372 
0.278839 0.016408 0.389653 
0.315521 0.000885 0.392437 
0.278600 0.015831 0.389717 
0.278363 0.015279 0.389910 
0.315056 -0.000172 0.392941 
0.278135 0.014774 0.390222 
0.277927 0.014335 0.390641 
0.314666 -0.000967 0.393873 
0.277745 0.013979 0.391153 
0.277597 0.013719 0.391737 
0.316245 0.003708 0.398136 
0.314410 -0.001379 0.395090 
0.277488 0.013567 0.392370 
0.314326 -0.001345 0.396407 
0.314701 -0.000028 0.398555 
0.315332 0.001635 0.399124 
0.316683 0.004476 0.396407 
0.316738 0.004257 0.394456 
0.315990 0.002043 0.392437 
0.315284 0.000333 0.392629 
0.314848 -0.000611 0.393361 
0.314518 -0.001226 0.394456 
0.314723 -0.001572 0.389780 
0.277783 0.013448 0.387719 
0.277801 0.013374 0.387060 
0.314704 -0.001498 0.390439 
0.277811 0.013633 0.388352 
0.314732 -0.001313 0.391072 
0.277885 0.013922 0.388936 
0.314806 -0.001024 0.391656 
0.278002 0.014304 0.389448 
0.315079 -0.000181 0.392587 
0.278158 0.014765 0.389868 
0.315267 0.000340 0.392899 
0.278346 0.015286 0.390180 
0.315480 0.000901 0.393091 
0.278559 0.015847 0.390372 
0.278789 0.016428 0.390437 
0.315710 0.001482 0.393156 
0.279027 0.017005 0.390372 
0.316186 0.002611 0.392899 
0.279265 0.017557 0.390180 
0.279492 0.018062 0.389868 
0.316622 0.003555 0.392167 
0.279701 0.018501 0.389448 
0.316804 0.003911 0.391656 
0.279883 0.018857 0.388936 
0.316952 0.004170 0.391072 
0.280031 0.019116 0.388352 
0.280139 0.019269 0.387719 
0.317125 0.004363 0.389780 
0.280204 0.019309 0.387060 
0.280223 0.019235 0.386402 
0.317144 0.004289 0.389122 
0.280194 0.019050 0.385769 
0.317041 0.003815 0.387905 
0.280120 0.018761 0.385185 
0.280003 0.018379 0.384673 
0.316924 0.003433 0.387393 
0.279848 0.017918 0.384253 
0.316769 0.002972 0.386973 
0.279660 0.017397 0.383941 
0.316581 0.002451 0.386661 
0.279447 0.016836 0.383749 
0.316138 0.001309 0.386404 
0.279216 0.016255 0.383684 
0.278978 0.015678 0.383749 
0.315899 0.000732 0.386469 
0.278740 0.015126 0.383941 
0.315662 0.000180 0.386661 
0.278513 0.014621 0.384253 
0.315434 -0.000325 0.386973 
0.278304 0.014182 0.384673 
0.315044 -0.001120 0.387905 
0.278123 0.013826 0.385185 
0.277975 0.013567 0.385769 
0.314923 -0.000642 0.392167 
0.314787 -0.001532 0.389122 
0.277866 0.013414 0.386402 
0.315949 0.002059 0.393091 
0.316414 0.003116 0.392587 
0.317060 0.004323 0.390439 
0.317116 0.004104 0.388488 
0.316368 0.001890 0.386469 
0.315226 -0.000764 0.387393 
0.314896 -0.001379 0.388488 
0.278239 0.013197 0.380153 
0.315141 -0.001675 0.383531 
0.278220 0.013271 0.380812 
0.315169 -0.001490 0.384165 
0.278248 0.013456 0.381445 
0.278322 0.013745 0.382029 
0.315361 -0.000819 0.385260 
0.278439 0.014127 0.382540 
0.315516 -0.000358 0.385680 
0.278595 0.014588 0.382960 
0.315704 0.000163 0.385992 
0.278783 0.015109 0.383272 
0.278996 0.015670 0.383464 
0.315917 0.000724 0.386184 
0.279226 0.016251 0.383529 
0.316386 0.001882 0.386184 
0.279465 0.016828 0.383464 
0.316623 0.002434 0.385992 
0.279702 0.017380 0.383272 
0.279930 0.017885 0.382960 
0.317059 0.003378 0.385260 
0.280138 0.018324 0.382540 
0.280320 0.018680 0.382029 
0.317389 0.003993 0.384165 
0.280468 0.018939 0.381445 
0.280576 0.019092 0.380812 
0.317498 0.004146 0.383531 
0.280641 0.019132 0.380153 
0.317581 0.004112 0.382214 
0.280660 0.019058 0.379494 
0.280632 0.018873 0.378861 
0.317553 0.003927 0.381581 
0.280557 0.018584 0.378277 
0.317479 0.003638 0.380997 
0.280440 0.018202 0.377766 
0.317362 0.003256 0.380485 
0.280285 0.017741 0.377346 
0.317206 0.002795 0.380066 
0.280097 0.017220 0.377034 
0.316805 0.001713 0.379561 
0.279884 0.016659 0.376842 
0.316575 0.001132 0.379497 
0.279654 0.016078 0.376777 
0.316336 0.000555 0.379561 
0.279415 0.015501 0.376842 
0.316099 0.000003 0.379754 
0.279178 0.014949 0.377034 
0.315871 -0.000502 0.380066 
0.278950 0.014444 0.377346 
0.278742 0.014005 0.377766 
0.315663 -0.000941 0.380485 
0.278560 0.013649 0.378277 
0.315481 -0.001297 0.380997 
0.278412 0.013390 0.378861 
0.315244 -0.001201 0.384748 
0.315225 -0.001709 0.382214 
0.278303 0.013237 0.379494 
0.315160 -0.001749 0.382873 
0.316147 0.001305 0.386249 
0.316851 0.002939 0.385680 
0.317241 0.003734 0.384748 
0.317562 0.004186 0.382873 
0.317018 0.002274 0.379754 
0.315333 -0.001556 0.381581 
0.315575 -0.001917 0.376310 
0.278635 0.013103 0.374249 
0.278654 0.013029 0.373591 
0.315557 -0.001843 0.376969 
0.278664 0.013288 0.374883 
0.315585 -0.001658 0.377602 
0.278738 0.013577 0.375466 
0.315659 -0.001369 0.378186 
0.278855 0.013959 0.375978 
0.315931 -0.000526 0.379117 
0.279010 0.014419 0.376398 
0.316119 -0.000005 0.379429 
0.279198 0.014941 0.376710 
0.279411 0.015502 0.376902 
0.316333 0.000556 0.379622 
0.279642 0.016083 0.376967 
0.316801 0.001714 0.379622 
0.279880 0.016660 0.376902 
0.280118 0.017212 0.376710 
0.317039 0.002266 0.379429 
0.280345 0.017717 0.376398 
0.317266 0.002771 0.379117 
0.280554 0.018156 0.375978 
0.317657 0.003566 0.378186 
0.280735 0.018512 0.375466 
0.317805 0.003825 0.377602 
0.280883 0.018771 0.374883 
0.280992 0.018924 0.374249 
0.317978 0.004018 0.376310 
0.281057 0.018964 0.373591 
0.317996 0.003944 0.375652 
0.281075 0.018890 0.372932 
0.281047 0.018705 0.372299 
0.317968 0.003759 0.375018 
0.280973 0.018416 0.371715 
0.317777 0.003088 0.373923 
0.280856 0.018034 0.371203 
0.317622 0.002627 0.373503 
0.280700 0.017573 0.370784 
0.280512 0.017052 0.370472 
0.317220 0.001545 0.372999 
0.280299 0.016490 0.370279 
0.316990 0.000964 0.372934 
0.280069 0.015910 0.370215 
0.316752 0.000387 0.372999 
0.279830 0.015333 0.370279 
0.279593 0.014781 0.370472 
0.316514 -0.000165 0.373191 
0.279366 0.014276 0.370784 
0.316287 -0.000670 0.373503 
0.279157 0.013837 0.371203 
0.316078 -0.001109 0.373923 
0.278975 0.013481 0.371715 
0.315896 -0.001465 0.374435 
0.278827 0.013221 0.372299 
0.315776 -0.000987 0.378698 
0.317475 0.003210 0.378698 
0.315640 -0.001877 0.375652 
0.278719 0.013069 0.372932 
0.316563 0.001137 0.379686 
0.317913 0.003978 0.376969 
0.317894 0.003470 0.374435 
0.317434 0.002106 0.373191 
0.315748 -0.001724 0.375018 
0.315936 -0.002063 0.370612 
0.278996 0.012957 0.368551 
0.279015 0.012883 0.367892 
0.315945 -0.001804 0.371904 
0.279024 0.013142 0.369184 
0.316020 -0.001515 0.372487 
0.279098 0.013431 0.369768 
0.316137 -0.001133 0.372999 
0.279215 0.013813 0.370279 
0.316292 -0.000672 0.373419 
0.279371 0.014273 0.370699 
0.316480 -0.000151 0.373731 
0.279559 0.014795 0.371011 
0.279772 0.015356 0.371203 
0.316693 0.000410 0.373923 
0.280002 0.015937 0.371268 
0.316923 0.000991 0.373988 
0.280241 0.016514 0.371203 
0.317162 0.001568 0.373923 
0.280478 0.017066 0.371011 
0.317399 0.002120 0.373731 
0.280706 0.017571 0.370699 
0.317835 0.003064 0.372999 
0.280914 0.018010 0.370279 
0.318017 0.003420 0.372487 
0.281096 0.018366 0.369768 
0.318165 0.003679 0.371904 
0.281244 0.018625 0.369184 
0.281352 0.018778 0.368551 
0.318274 0.003832 0.371270 
0.281417 0.018818 0.367892 
0.318357 0.003798 0.369953 
0.281436 0.018744 0.367233 
0.318329 0.003613 0.369320 
0.281408 0.018559 0.366600 
0.318255 0.003324 0.368736 
0.281334 0.018270 0.366016 
0.281216 0.017888 0.365505 
0.318138 0.002942 0.368224 
0.281061 0.017427 0.365085 
0.317982 0.002481 0.367805 
0.280873 0.016906 0.364773 
0.317581 0.001399 0.367300 
0.280660 0.016344 0.364581 
0.317351 0.000818 0.367236 
0.280430 0.015764 0.364516 
0.317112 0.000241 0.367300 
0.280191 0.015186 0.364581 
0.316875 -0.000311 0.367493 
0.279954 0.014635 0.364773 
0.279726 0.014130 0.365085 
0.316647 -0.000816 0.367805 
0.279518 0.013691 0.365505 
0.316257 -0.001611 0.368736 
0.279336 0.013335 0.366016 
0.279188 0.013075 0.366600 
0.316001 -0.002023 0.369953 
0.279079 0.012923 0.367233 
0.315917 -0.001989 0.371270 
0.317627 0.002625 0.373419 
0.318338 0.003872 0.370612 
0.317794 0.001960 0.367493 
0.316439 -0.001255 0.368224 
0.316109 -0.001870 0.369320 
0.313359 0.005756 0.448567 
0.276419 0.020776 0.446506 
0.276438 0.020702 0.445847 
0.313368 0.006015 0.449859 
0.276447 0.020961 0.447139 
0.276521 0.021250 0.447723 
0.313442 0.006304 0.450442 
0.276638 0.021633 0.448234 
0.313560 0.006687 0.450954 
0.276794 0.022093 0.448654 
0.313715 0.007147 0.451374 
0.276982 0.022614 0.448966 
0.314116 0.008230 0.451878 
0.277195 0.023176 0.449158 
0.314346 0.008810 0.451943 
0.277425 0.023756 0.449223 
0.314585 0.009388 0.451878 
0.277664 0.024334 0.449158 
0.277901 0.024885 0.448966 
0.314822 0.009939 0.451686 
0.278129 0.025390 0.448654 
0.315050 0.010445 0.451374 
0.278337 0.025829 0.448234 
0.315440 0.011239 0.450442 
0.278519 0.026185 0.447723 
0.315588 0.011499 0.449859 
0.278667 0.026445 0.447139 
0.278775 0.026597 0.446506 
0.315761 0.011692 0.448567 
0.278840 0.026637 0.445847 
0.315780 0.011618 0.447908 
0.278859 0.026564 0.445188 
0.315752 0.011433 0.447275 
0.278831 0.026378 0.444555 
0.278756 0.026089 0.443971 
0.315678 0.011143 0.446691 
0.278639 0.025707 0.443460 
0.315561 0.010761 0.446179 
0.278484 0.025247 0.443040 
0.315405 0.010301 0.445760 
0.278296 0.024726 0.442728 
0.315004 0.009218 0.445255 
0.278083 0.024164 0.442536 
0.314774 0.008637 0.445191 
0.277853 0.023583 0.442471 
0.277614 0.023006 0.442536 
0.314535 0.008060 0.445255 
0.277377 0.022454 0.442728 
0.314298 0.007508 0.445448 
0.277149 0.021949 0.443040 
0.314070 0.007003 0.445760 
0.276941 0.021510 0.443460 
0.313680 0.006208 0.446691 
0.276759 0.021154 0.443971 
0.276611 0.020895 0.444555 
0.315258 0.010884 0.450954 
0.313423 0.005796 0.447908 
0.276502 0.020742 0.445188 
0.313340 0.005830 0.449225 
0.313903 0.007668 0.451686 
0.315697 0.011651 0.449225 
0.315217 0.009780 0.445448 
0.313862 0.006564 0.446179 
0.313532 0.005949 0.447275 
0.313774 0.005588 0.442002 
0.276835 0.020608 0.439941 
0.276853 0.020534 0.439282 
0.313784 0.005847 0.443294 
0.276863 0.020793 0.440574 
0.276937 0.021082 0.441158 
0.313858 0.006136 0.443877 
0.277054 0.021464 0.441669 
0.314131 0.006979 0.444809 
0.277209 0.021925 0.442089 
0.314318 0.007500 0.445121 
0.277397 0.022446 0.442401 
0.314532 0.008062 0.445313 
0.277611 0.023007 0.442593 
0.314762 0.008642 0.445378 
0.277841 0.023588 0.442658 
0.315000 0.009219 0.445313 
0.278079 0.024165 0.442593 
0.315238 0.009771 0.445121 
0.278317 0.024717 0.442401 
0.278544 0.025222 0.442089 
0.315674 0.010715 0.444389 
0.278753 0.025661 0.441669 
0.278935 0.026017 0.441158 
0.316004 0.011331 0.443294 
0.279083 0.026276 0.440574 
0.279191 0.026429 0.439941 
0.316177 0.011523 0.442002 
0.279256 0.026469 0.439282 
0.316196 0.011449 0.441343 
0.279274 0.026395 0.438623 
0.279246 0.026210 0.437990 
0.316167 0.011264 0.440710 
0.279172 0.025921 0.437406 
0.316093 0.010975 0.440126 
0.279055 0.025539 0.436895 
0.315821 0.010133 0.439195 
0.278900 0.025078 0.436475 
0.278712 0.024557 0.436163 
0.315420 0.009050 0.438690 
0.278498 0.023996 0.435971 
0.315189 0.008469 0.438626 
0.278268 0.023415 0.435906 
0.278030 0.022838 0.435971 
0.314713 0.007340 0.438882 
0.277792 0.022286 0.436163 
0.277565 0.021781 0.436475 
0.314486 0.006835 0.439195 
0.277356 0.021342 0.436895 
0.314095 0.006040 0.440126 
0.277174 0.020986 0.437406 
0.277026 0.020727 0.437990 
0.313975 0.006518 0.444389 
0.313839 0.005628 0.441343 
0.276918 0.020574 0.438623 
0.313756 0.005662 0.442660 
0.315465 0.010276 0.444809 
0.315856 0.011071 0.443877 
0.316112 0.011483 0.442660 
0.315976 0.010593 0.439614 
0.315633 0.009611 0.438882 
0.314951 0.007892 0.438690 
0.314277 0.006396 0.439614 
0.313947 0.005781 0.440710 
0.314190 0.005420 0.435437 
0.277250 0.020440 0.433376 
0.277269 0.020366 0.432717 
0.314199 0.005679 0.436729 
0.277278 0.020625 0.434009 
0.314274 0.005968 0.437312 
0.277352 0.020914 0.434593 
0.277469 0.021296 0.435104 
0.314546 0.006811 0.438244 
0.277625 0.021757 0.435524 
0.314734 0.007332 0.438556 
0.277813 0.022278 0.435836 
0.278026 0.022839 0.436028 
0.315177 0.008474 0.438813 
0.278256 0.023420 0.436093 
0.278495 0.023997 0.436028 
0.315653 0.009603 0.438556 
0.278732 0.024549 0.435836 
0.278960 0.025054 0.435524 
0.316089 0.010547 0.437824 
0.279168 0.025493 0.435104 
0.316271 0.010903 0.437312 
0.279350 0.025849 0.434593 
0.316419 0.011162 0.436729 
0.279498 0.026108 0.434009 
0.279606 0.026261 0.433376 
0.316528 0.011315 0.436095 
0.279671 0.026301 0.432717 
0.316611 0.011281 0.434778 
0.279690 0.026227 0.432058 
0.279662 0.026042 0.431425 
0.316583 0.011096 0.434145 
0.279587 0.025753 0.430841 
0.316509 0.010807 0.433561 
0.279470 0.025371 0.430330 
0.316392 0.010425 0.433049 
0.279315 0.024910 0.429910 
0.316236 0.009964 0.432630 
0.279127 0.024389 0.429598 
0.315835 0.008882 0.432125 
0.278914 0.023828 0.429406 
0.315605 0.008301 0.432061 
0.278684 0.023247 0.429341 
0.278445 0.022670 0.429406 
0.315366 0.007724 0.432125 
0.278208 0.022118 0.429598 
0.315129 0.007172 0.432318 
0.277980 0.021613 0.429910 
0.314901 0.006667 0.432630 
0.277772 0.021174 0.430330 
0.314511 0.005872 0.433561 
0.277590 0.020818 0.430841 
0.277442 0.020559 0.431425 
0.314391 0.006350 0.437824 
0.314255 0.005460 0.434778 
0.277333 0.020406 0.432058 
0.314171 0.005494 0.436095 
0.314947 0.007893 0.438748 
0.315416 0.009051 0.438748 
0.315881 0.010108 0.438244 
0.316592 0.011355 0.435437 
0.316048 0.009443 0.432318 
0.314693 0.006228 0.433049 
0.314363 0.005613 0.434145 
0.314605 0.005252 0.428872 
0.277666 0.020271 0.426811 
0.277684 0.020198 0.426152 
0.314587 0.005326 0.429530 
0.277694 0.020457 0.427444 
0.314615 0.005511 0.430164 
0.277768 0.020746 0.428028 
0.314689 0.005800 0.430747 
0.277885 0.021128 0.428539 
0.314806 0.006182 0.431259 
0.278040 0.021588 0.428959 
0.315150 0.007164 0.431991 
0.278228 0.022109 0.429271 
0.315363 0.007725 0.432183 
0.278442 0.022671 0.429463 
0.315593 0.008306 0.432248 
0.278672 0.023252 0.429528 
0.278910 0.023829 0.429463 
0.316069 0.009435 0.431991 
0.279148 0.024381 0.429271 
0.279375 0.024886 0.428959 
0.316505 0.010379 0.431259 
0.279584 0.025325 0.428539 
0.316687 0.010735 0.430747 
0.279766 0.025681 0.428028 
0.316835 0.010994 0.430164 
0.279914 0.025940 0.427444 
0.280022 0.026093 0.426811 
0.317008 0.011187 0.428872 
0.280087 0.026133 0.426152 
0.280105 0.026059 0.425493 
0.317027 0.011113 0.428213 
0.280077 0.025874 0.424860 
0.316998 0.010928 0.427580 
0.280003 0.025585 0.424276 
0.316807 0.010257 0.426484 
0.279886 0.025202 0.423765 
0.279731 0.024742 0.423345 
0.316652 0.009796 0.426065 
0.279543 0.024221 0.423033 
0.316251 0.008713 0.425560 
0.279329 0.023659 0.422841 
0.316020 0.008133 0.425496 
0.279099 0.023079 0.422776 
0.315782 0.007555 0.425560 
0.278861 0.022501 0.422841 
0.278623 0.021950 0.423033 
0.315544 0.007004 0.425753 
0.278396 0.021445 0.423345 
0.315108 0.006060 0.426484 
0.278187 0.021006 0.423765 
0.314926 0.005704 0.426996 
0.278005 0.020650 0.424276 
0.277857 0.020390 0.424860 
0.314779 0.005444 0.427580 
0.277749 0.020238 0.425493 
0.314670 0.005292 0.428213 
0.314962 0.006642 0.431679 
0.315831 0.008883 0.432183 
0.316296 0.009940 0.431679 
0.316943 0.011147 0.429530 
0.316924 0.010639 0.426996 
0.316464 0.009275 0.425753 
0.315317 0.006499 0.426065 
0.278100 0.020029 0.419587 
0.315002 0.005157 0.422965 
0.278081 0.020103 0.420246 
0.278109 0.020288 0.420879 
0.315030 0.005342 0.423599 
0.278183 0.020577 0.421463 
0.315222 0.006014 0.424694 
0.278300 0.020960 0.421974 
0.315377 0.006474 0.425114 
0.278456 0.021420 0.422394 
0.315565 0.006995 0.425426 
0.278644 0.021941 0.422706 
0.315778 0.007557 0.425618 
0.278857 0.022503 0.422898 
0.316008 0.008138 0.425683 
0.279087 0.023083 0.422963 
0.316247 0.008715 0.425618 
0.279326 0.023661 0.422898 
0.279563 0.024213 0.422706 
0.316484 0.009267 0.425426 
0.279791 0.024718 0.422394 
0.316712 0.009772 0.425114 
0.279999 0.025157 0.421974 
0.316920 0.010211 0.424694 
0.280181 0.025513 0.421463 
0.317250 0.010826 0.423599 
0.280329 0.025772 0.420879 
0.280437 0.025924 0.420246 
0.317423 0.011019 0.422307 
0.280502 0.025965 0.419587 
0.317442 0.010945 0.421648 
0.280521 0.025891 0.418928 
0.280493 0.025706 0.418295 
0.317414 0.010760 0.421015 
0.280419 0.025416 0.417711 
0.317223 0.010088 0.419919 
0.280301 0.025034 0.417200 
0.280146 0.024574 0.416780 
0.317067 0.009628 0.419500 
0.279958 0.024053 0.416468 
0.316879 0.009107 0.419188 
0.279745 0.023491 0.416276 
0.316436 0.007965 0.418931 
0.279515 0.022910 0.416211 
0.316197 0.007387 0.418995 
0.279276 0.022333 0.416276 
0.315960 0.006835 0.419188 
0.279039 0.021781 0.416468 
0.315732 0.006330 0.419500 
0.278811 0.021276 0.416780 
0.278603 0.020837 0.417200 
0.315342 0.005535 0.420431 
0.278421 0.020481 0.417711 
0.278273 0.020222 0.418295 
0.315105 0.005632 0.424182 
0.315086 0.005124 0.421648 
0.278164 0.020069 0.418928 
0.315021 0.005083 0.422307 
0.317102 0.010567 0.424182 
0.317359 0.010979 0.422965 
0.317340 0.010471 0.420431 
0.316666 0.008545 0.418995 
0.315524 0.005891 0.419919 
0.315194 0.005276 0.421015 
0.315436 0.004915 0.415742 
0.278497 0.019935 0.413681 
0.278515 0.019861 0.413022 
0.315446 0.005174 0.417034 
0.278525 0.020120 0.414314 
0.278599 0.020409 0.414898 
0.315520 0.005463 0.417617 
0.278716 0.020792 0.415409 
0.315793 0.006306 0.418549 
0.278871 0.021252 0.415829 
0.315980 0.006827 0.418861 
0.279059 0.021773 0.416141 
0.279272 0.022335 0.416333 
0.316424 0.007969 0.419118 
0.279503 0.022915 0.416398 
0.316662 0.008547 0.419053 
0.279741 0.023493 0.416333 
0.279979 0.024044 0.416141 
0.316900 0.009098 0.418861 
0.280206 0.024549 0.415829 
0.317127 0.009604 0.418549 
0.280415 0.024988 0.415409 
0.317336 0.010043 0.418129 
0.280597 0.025344 0.414898 
0.317666 0.010658 0.417034 
0.280745 0.025604 0.414314 
0.280853 0.025756 0.413681 
0.317839 0.010851 0.415742 
0.280918 0.025796 0.413022 
0.317858 0.010777 0.415083 
0.280936 0.025723 0.412363 
0.280908 0.025537 0.411730 
0.317755 0.010302 0.413866 
0.280834 0.025248 0.411146 
0.317638 0.009920 0.413354 
0.280717 0.024866 0.410635 
0.280562 0.024406 0.410215 
0.317483 0.009460 0.412935 
0.280374 0.023885 0.409903 
0.317295 0.008939 0.412623 
0.280160 0.023323 0.409711 
0.316851 0.007796 0.412366 
0.279930 0.022742 0.409646 
0.316613 0.007219 0.412430 
0.279692 0.022165 0.409711 
0.316375 0.006667 0.412623 
0.279454 0.021613 0.409903 
0.316148 0.006162 0.412935 
0.279227 0.021108 0.410215 
0.279018 0.020669 0.410635 
0.315757 0.005367 0.413866 
0.278836 0.020313 0.411146 
0.278688 0.020054 0.411730 
0.315637 0.005846 0.418129 
0.315610 0.005108 0.414450 
0.278580 0.019901 0.412363 
0.315501 0.004955 0.415083 
0.315418 0.004989 0.416400 
0.316194 0.007389 0.419053 
0.317518 0.010398 0.417617 
0.317774 0.010810 0.416400 
0.317829 0.010592 0.414450 
0.317082 0.008377 0.412430 
0.315939 0.005723 0.413354 
0.315871 0.004739 0.408878 
0.278931 0.019759 0.406817 
0.278949 0.019685 0.406159 
0.315852 0.004813 0.409537 
0.278959 0.019944 0.407451 
0.315880 0.004998 0.410170 
0.279033 0.020233 0.408034 
0.316071 0.005670 0.411266 
0.279150 0.020616 0.408546 
0.279306 0.021076 0.408966 
0.316415 0.006651 0.411997 
0.279494 0.021597 0.409278 
0.316628 0.007213 0.412190 
0.279707 0.022159 0.409470 
0.316858 0.007794 0.412254 
0.279937 0.022739 0.409535 
0.280176 0.023317 0.409470 
0.317334 0.008923 0.411997 
0.280413 0.023869 0.409278 
0.280641 0.024374 0.408966 
0.317770 0.009867 0.411266 
0.280849 0.024813 0.408546 
0.281031 0.025169 0.408034 
0.318100 0.010482 0.410170 
0.281179 0.025428 0.407451 
0.281287 0.025580 0.406817 
0.318209 0.010635 0.409537 
0.281352 0.025621 0.406159 
0.318273 0.010675 0.408878 
0.281371 0.025547 0.405500 
0.318292 0.010601 0.408220 
0.281342 0.025362 0.404867 
0.318264 0.010416 0.407586 
0.281268 0.025072 0.404283 
0.318073 0.009744 0.406491 
0.281151 0.024690 0.403771 
0.280996 0.024230 0.403351 
0.317917 0.009284 0.406071 
0.280808 0.023709 0.403040 
0.317516 0.008201 0.405567 
0.280595 0.023147 0.402847 
0.317286 0.007621 0.405502 
0.280364 0.022566 0.402783 
0.317047 0.007043 0.405567 
0.280126 0.021989 0.402847 
0.279889 0.021437 0.403040 
0.316810 0.006491 0.405759 
0.279661 0.020932 0.403351 
0.316582 0.005986 0.406071 
0.279452 0.020493 0.403771 
0.316192 0.005191 0.407003 
0.279271 0.020137 0.404283 
0.279123 0.019878 0.404867 
0.315954 0.005288 0.410754 
0.315935 0.004780 0.408220 
0.279014 0.019725 0.405500 
0.316227 0.006130 0.411685 
0.317097 0.008371 0.412190 
0.317562 0.009428 0.411685 
0.317952 0.010223 0.410754 
0.318190 0.010127 0.407003 
0.317729 0.008763 0.405759 
0.316374 0.005547 0.406491 
0.316044 0.004932 0.407586 
0.316286 0.004571 0.402313 
0.279346 0.019591 0.400252 
0.279365 0.019517 0.399594 
0.316296 0.004830 0.403605 
0.279375 0.019776 0.400886 
0.279449 0.020065 0.401469 
0.316370 0.005119 0.404189 
0.279566 0.020447 0.401981 
0.316487 0.005502 0.404701 
0.279721 0.020908 0.402401 
0.316830 0.006483 0.405432 
0.279909 0.021429 0.402713 
0.280122 0.021991 0.402905 
0.317044 0.007045 0.405625 
0.280353 0.022571 0.402970 
0.317274 0.007625 0.405689 
0.280591 0.023149 0.402905 
0.317750 0.008754 0.405432 
0.280829 0.023700 0.402713 
0.281056 0.024205 0.402401 
0.318186 0.009698 0.404701 
0.281265 0.024644 0.401981 
0.318368 0.010054 0.404189 
0.281446 0.025000 0.401469 
0.318516 0.010314 0.403605 
0.281594 0.025260 0.400886 
0.281703 0.025412 0.400252 
0.318689 0.010506 0.402313 
0.281768 0.025452 0.399594 
0.281786 0.025378 0.398935 
0.318707 0.010433 0.401655 
0.281758 0.025193 0.398302 
0.318605 0.009958 0.400438 
0.281684 0.024904 0.397718 
0.281567 0.024522 0.397206 
0.318333 0.009116 0.399506 
0.281411 0.024062 0.396787 
0.281223 0.023540 0.396475 
0.317931 0.008033 0.399002 
0.281010 0.022979 0.396282 
0.317701 0.007452 0.398937 
0.280780 0.022398 0.396218 
0.317463 0.006875 0.399002 
0.280542 0.021821 0.396282 
0.280304 0.021269 0.396475 
0.317225 0.006323 0.399194 
0.280077 0.020764 0.396787 
0.316789 0.005379 0.399926 
0.279868 0.020325 0.397206 
0.316607 0.005023 0.400438 
0.279686 0.019969 0.397718 
0.279538 0.019710 0.398302 
0.316459 0.004764 0.401021 
0.279430 0.019557 0.398935 
0.316351 0.004611 0.401655 
0.316268 0.004645 0.402972 
0.316642 0.005962 0.405120 
0.317512 0.008203 0.405625 
0.317977 0.009259 0.405120 
0.318624 0.010466 0.402972 
0.318679 0.010247 0.401021 
0.318488 0.009576 0.399926 
0.318145 0.008595 0.399194 
0.316998 0.005818 0.399506 
0.316702 0.004403 0.395748 
0.279762 0.019423 0.393687 
0.279780 0.019349 0.393029 
0.316711 0.004662 0.397040 
0.279790 0.019608 0.394321 
0.279864 0.019897 0.394904 
0.316902 0.005333 0.398136 
0.279981 0.020279 0.395416 
0.280137 0.020740 0.395836 
0.317058 0.005794 0.398555 
0.280325 0.021261 0.396148 
0.317246 0.006315 0.398867 
0.280538 0.021822 0.396340 
0.317689 0.007457 0.399124 
0.280768 0.022403 0.396405 
0.317928 0.008034 0.399060 
0.281007 0.022980 0.396340 
0.318165 0.008586 0.398867 
0.281244 0.023532 0.396148 
0.281472 0.024037 0.395836 
0.318393 0.009091 0.398555 
0.281680 0.024476 0.395416 
0.318601 0.009530 0.398136 
0.281862 0.024832 0.394904 
0.318783 0.009886 0.397624 
0.282010 0.025091 0.394321 
0.318931 0.010146 0.397040 
0.282118 0.025244 0.393687 
0.319104 0.010338 0.395748 
0.282183 0.025284 0.393029 
0.282202 0.025210 0.392370 
0.319123 0.010264 0.395090 
0.282173 0.025025 0.391737 
0.319021 0.009790 0.393873 
0.282099 0.024736 0.391153 
0.281982 0.024354 0.390641 
0.318904 0.009408 0.393361 
0.281827 0.023893 0.390222 
0.318748 0.008947 0.392941 
0.281639 0.023372 0.389910 
0.318347 0.007865 0.392437 
0.281426 0.022811 0.389717 
0.318117 0.007284 0.392372 
0.281195 0.022230 0.389653 
0.317878 0.006707 0.392437 
0.280957 0.021653 0.389717 
0.280719 0.021101 0.389910 
0.317641 0.006155 0.392629 
0.280492 0.020596 0.390222 
0.317205 0.005211 0.393361 
0.280283 0.020157 0.390641 
0.317023 0.004855 0.393873 
0.280102 0.019801 0.391153 
0.279954 0.019542 0.391737 
0.316785 0.004951 0.397624 
0.316766 0.004443 0.395090 
0.279845 0.019389 0.392370 
0.316683 0.004477 0.396407 
0.317459 0.006877 0.399060 
0.319040 0.010298 0.396407 
0.319095 0.010079 0.394456 
0.318560 0.008426 0.392629 
0.317413 0.005650 0.392941 
0.316875 0.004596 0.394456 
0.317079 0.004250 0.389780 
0.280140 0.019270 0.387719 
0.280158 0.019196 0.387060 
0.317061 0.004324 0.390439 
0.280168 0.019455 0.388352 
0.317163 0.004798 0.391656 
0.280242 0.019744 0.388936 
0.317280 0.005180 0.392167 
0.280359 0.020126 0.389448 
0.317436 0.005641 0.392587 
0.280515 0.020587 0.389868 
0.317624 0.006162 0.392899 
0.280702 0.021108 0.390180 
0.317837 0.006724 0.393091 
0.280916 0.021670 0.390372 
0.281146 0.022250 0.390437 
0.318306 0.007882 0.393091 
0.281384 0.022827 0.390372 
0.318543 0.008433 0.392899 
0.281622 0.023379 0.390180 
0.318771 0.008938 0.392587 
0.281849 0.023884 0.389868 
0.282058 0.024323 0.389448 
0.319161 0.009733 0.391656 
0.282240 0.024679 0.388936 
0.319309 0.009993 0.391072 
0.282388 0.024938 0.388352 
0.282496 0.025091 0.387719 
0.319417 0.010145 0.390439 
0.282561 0.025131 0.387060 
0.319482 0.010185 0.389780 
0.282580 0.025057 0.386402 
0.319472 0.009926 0.388488 
0.282551 0.024872 0.385769 
0.319398 0.009637 0.387905 
0.282477 0.024583 0.385185 
0.319281 0.009255 0.387393 
0.282360 0.024201 0.384673 
0.282205 0.023740 0.384253 
0.318938 0.008274 0.386661 
0.282017 0.023219 0.383941 
0.318725 0.007712 0.386469 
0.281804 0.022658 0.383749 
0.281573 0.022077 0.383684 
0.318256 0.006554 0.386469 
0.281335 0.021500 0.383749 
0.281097 0.020948 0.383941 
0.317791 0.005497 0.386973 
0.280870 0.020443 0.384253 
0.280661 0.020004 0.384673 
0.317401 0.004702 0.387905 
0.280479 0.019648 0.385185 
0.280331 0.019389 0.385769 
0.318979 0.009377 0.392167 
0.317144 0.004290 0.389122 
0.280223 0.019236 0.386402 
0.317089 0.004509 0.391072 
0.318067 0.007304 0.393156 
0.319501 0.010112 0.389122 
0.319126 0.008795 0.386973 
0.318494 0.007131 0.386404 
0.318018 0.006002 0.386661 
0.317582 0.005058 0.387393 
0.317253 0.004443 0.388488 
0.280595 0.019019 0.380153 
0.317498 0.004147 0.383531 
0.280577 0.019093 0.380812 
0.280605 0.019278 0.381445 
0.317526 0.004332 0.384165 
0.280679 0.019567 0.382029 
0.317717 0.005003 0.385260 
0.280796 0.019949 0.382540 
0.280952 0.020410 0.382960 
0.318061 0.005985 0.385992 
0.281140 0.020931 0.383272 
0.318274 0.006547 0.386184 
0.281353 0.021493 0.383464 
0.281583 0.022073 0.383529 
0.318743 0.007705 0.386184 
0.281822 0.022650 0.383464 
0.282059 0.023202 0.383272 
0.319208 0.008761 0.385680 
0.282287 0.023707 0.382960 
0.319416 0.009200 0.385260 
0.282495 0.024146 0.382540 
0.319598 0.009556 0.384748 
0.282677 0.024502 0.382029 
0.319746 0.009816 0.384165 
0.282825 0.024762 0.381445 
0.282933 0.024914 0.380812 
0.319919 0.010008 0.382873 
0.282998 0.024954 0.380153 
0.319938 0.009935 0.382214 
0.283017 0.024880 0.379494 
0.282988 0.024695 0.378861 
0.319836 0.009460 0.380997 
0.282914 0.024406 0.378277 
0.319718 0.009078 0.380485 
0.282797 0.024024 0.377766 
0.282642 0.023563 0.377346 
0.319563 0.008618 0.380066 
0.282454 0.023042 0.377034 
0.319162 0.007535 0.379561 
0.282241 0.022481 0.376842 
0.318932 0.006954 0.379497 
0.282010 0.021900 0.376777 
0.318693 0.006377 0.379561 
0.281772 0.021323 0.376842 
0.281534 0.020771 0.377034 
0.318228 0.005320 0.380066 
0.281307 0.020266 0.377346 
0.318020 0.004881 0.380485 
0.281098 0.019827 0.377766 
0.317838 0.004525 0.380997 
0.280917 0.019471 0.378277 
0.280769 0.019212 0.378861 
0.317600 0.004621 0.384748 
0.317690 0.004266 0.381581 
0.280660 0.019059 0.379494 
0.317517 0.004073 0.382873 
0.317873 0.005464 0.385680 
0.318504 0.007127 0.386249 
0.318980 0.008256 0.385992 
0.319855 0.009968 0.383531 
0.319910 0.009749 0.381581 
0.319375 0.008097 0.379754 
0.318456 0.005825 0.379754 
0.317581 0.004113 0.382214 
0.317932 0.003905 0.376310 
0.280992 0.018925 0.374249 
0.281011 0.018851 0.373591 
0.317913 0.003979 0.376969 
0.281020 0.019110 0.374883 
0.317942 0.004164 0.377602 
0.281095 0.019399 0.375466 
0.318133 0.004835 0.378698 
0.281212 0.019781 0.375978 
0.281367 0.020242 0.376398 
0.318476 0.005817 0.379429 
0.281555 0.020763 0.376710 
0.318689 0.006379 0.379622 
0.281768 0.021324 0.376902 
0.318920 0.006959 0.379686 
0.281998 0.021905 0.376967 
0.319158 0.007536 0.379622 
0.282237 0.022482 0.376902 
0.282474 0.023034 0.376710 
0.319396 0.008088 0.379429 
0.282702 0.023539 0.376398 
0.319623 0.008593 0.379117 
0.282910 0.023978 0.375978 
0.320013 0.009388 0.378186 
0.283092 0.024334 0.375466 
0.320161 0.009647 0.377602 
0.283240 0.024593 0.374883 
0.283349 0.024746 0.374249 
0.320335 0.009840 0.376310 
0.283413 0.024786 0.373591 
0.283432 0.024712 0.372932 
0.320353 0.009766 0.375652 
0.283404 0.024527 0.372299 
0.320251 0.009292 0.374435 
0.283330 0.024238 0.371715 
0.283213 0.023856 0.371203 
0.319978 0.008449 0.373503 
0.283057 0.023395 0.370784 
0.282869 0.022874 0.370472 
0.319790 0.007928 0.373191 
0.282656 0.022313 0.370279 
0.319577 0.007367 0.372999 
0.282426 0.021732 0.370215 
0.319108 0.006209 0.372999 
0.282187 0.021155 0.370279 
0.281950 0.020603 0.370472 
0.318871 0.005657 0.373191 
0.281722 0.020098 0.370784 
0.318644 0.005152 0.373503 
0.281514 0.019659 0.371203 
0.318253 0.004357 0.374435 
0.281332 0.019303 0.371715 
0.281184 0.019044 0.372299 
0.318016 0.004453 0.378186 
0.319832 0.009032 0.378698 
0.317997 0.003945 0.375652 
0.281076 0.018891 0.372932 
0.318288 0.005296 0.379117 
0.320270 0.009800 0.376969 
0.320325 0.009581 0.375018 
0.320134 0.008910 0.373923 
0.319347 0.006786 0.372934 
0.318435 0.004713 0.373923 
0.318105 0.004098 0.375018 
0.318293 0.003759 0.370612 
0.281353 0.018779 0.368551 
0.281371 0.018705 0.367892 
0.318274 0.003833 0.371270 
0.281381 0.018964 0.369184 
0.318302 0.004018 0.371904 
0.281455 0.019253 0.369768 
0.318376 0.004307 0.372487 
0.281572 0.019635 0.370279 
0.318649 0.005150 0.373419 
0.281728 0.020096 0.370699 
0.318837 0.005671 0.373731 
0.281916 0.020617 0.371011 
0.319050 0.006232 0.373923 
0.282129 0.021178 0.371203 
0.282359 0.021759 0.371268 
0.319519 0.007390 0.373923 
0.282598 0.022336 0.371203 
0.282835 0.022888 0.371011 
0.319984 0.008447 0.373419 
0.283063 0.023393 0.370699 
0.283271 0.023832 0.370279 
0.320374 0.009242 0.372487 
0.283453 0.024188 0.369768 
0.320522 0.009501 0.371904 
0.283601 0.024447 0.369184 
0.283709 0.024600 0.368551 
0.320631 0.009654 0.371270 
0.283774 0.024640 0.367892 
0.320714 0.009620 0.369953 
0.283793 0.024566 0.367233 
0.283764 0.024381 0.366600 
0.320686 0.009435 0.369320 
0.283690 0.024092 0.366016 
0.320612 0.009146 0.368736 
0.283573 0.023710 0.365505 
0.320495 0.008764 0.368224 
0.283418 0.023249 0.365085 
0.320339 0.008303 0.367805 
0.283230 0.022728 0.364773 
0.319938 0.007221 0.367300 
0.283017 0.022167 0.364581 
0.319708 0.006640 0.367236 
0.282786 0.021586 0.364516 
0.319469 0.006063 0.367300 
0.282548 0.021009 0.364581 
0.282310 0.020457 0.364773 
0.319004 0.005006 0.367805 
0.282083 0.019952 0.365085 
0.281874 0.019513 0.365505 
0.318614 0.004211 0.368736 
0.281693 0.019157 0.366016 
0.281545 0.018898 0.366600 
0.318493 0.004689 0.372999 
0.320192 0.008886 0.372999 
0.318357 0.003799 0.369953 
0.281436 0.018745 0.367233 
0.319280 0.006813 0.373988 
0.319756 0.007942 0.373731 
0.320695 0.009694 0.370612 
0.320151 0.007782 0.367493 
0.319232 0.005511 0.367493 
0.318796 0.004567 0.368224 
0.318466 0.003952 0.369320 
0.307986 -0.006267 0.455430 
0.271046 0.008753 0.453369 
0.271065 0.008679 0.452710 
0.307996 -0.006008 0.456722 
0.271075 0.008938 0.454002 
0.271149 0.009227 0.454586 
0.308070 -0.005719 0.457306 
0.271266 0.009609 0.455098 
0.308342 -0.004876 0.458237 
0.271421 0.010070 0.455517 
0.308530 -0.004355 0.458549 
0.271609 0.010591 0.455829 
0.271822 0.011153 0.456022 
0.308974 -0.003213 0.458806 
0.272053 0.011733 0.456086 
0.309212 -0.002635 0.458741 
0.272291 0.012310 0.456022 
0.309450 -0.002084 0.458549 
0.272529 0.012862 0.455829 
0.272756 0.013367 0.455517 
0.309677 -0.001579 0.458237 
0.272965 0.013806 0.455098 
0.310068 -0.000784 0.457306 
0.273146 0.014162 0.454586 
0.273294 0.014422 0.454002 
0.310216 -0.000524 0.456722 
0.273403 0.014574 0.453369 
0.310389 -0.000332 0.455430 
0.273468 0.014614 0.452710 
0.310407 -0.000405 0.454771 
0.273486 0.014540 0.452052 
0.273458 0.014355 0.451418 
0.310305 -0.000880 0.453554 
0.273384 0.014066 0.450835 
0.273267 0.013684 0.450323 
0.310188 -0.001262 0.453043 
0.273111 0.013224 0.449903 
0.310033 -0.001722 0.452623 
0.272923 0.012702 0.449591 
0.309631 -0.002805 0.452119 
0.272710 0.012141 0.449399 
0.309401 -0.003386 0.452054 
0.272480 0.011560 0.449334 
0.272242 0.010983 0.449399 
0.309163 -0.003963 0.452119 
0.272004 0.010431 0.449591 
0.308925 -0.004515 0.452311 
0.271777 0.009926 0.449903 
0.308698 -0.005020 0.452623 
0.271568 0.009487 0.450323 
0.308307 -0.005815 0.453554 
0.271386 0.009131 0.450835 
0.271238 0.008872 0.451418 
0.308187 -0.005336 0.457817 
0.309886 -0.001140 0.457817 
0.308159 -0.006074 0.454138 
0.271130 0.008719 0.452052 
0.308051 -0.006227 0.454771 
0.307968 -0.006193 0.456089 
0.308744 -0.003793 0.458741 
0.310324 -0.000372 0.456089 
0.310379 -0.000591 0.454138 
0.309845 -0.002243 0.452311 
0.308489 -0.005459 0.453043 
0.308421 -0.006443 0.448567 
0.271481 0.008577 0.446506 
0.271499 0.008503 0.445847 
0.308402 -0.006369 0.449225 
0.271509 0.008762 0.447139 
0.308430 -0.006184 0.449859 
0.271583 0.009051 0.447723 
0.308504 -0.005895 0.450442 
0.271700 0.009434 0.448234 
0.308777 -0.005052 0.451374 
0.271856 0.009894 0.448654 
0.272044 0.010415 0.448966 
0.309178 -0.003969 0.451878 
0.272257 0.010977 0.449158 
0.309408 -0.003389 0.451943 
0.272487 0.011557 0.449223 
0.309647 -0.002811 0.451878 
0.272725 0.012135 0.449158 
0.272963 0.012686 0.448966 
0.309884 -0.002259 0.451686 
0.273190 0.013192 0.448654 
0.310112 -0.001754 0.451374 
0.273399 0.013630 0.448234 
0.310502 -0.000959 0.450442 
0.273581 0.013986 0.447723 
0.273729 0.014246 0.447139 
0.310650 -0.000700 0.449859 
0.273837 0.014398 0.446506 
0.310758 -0.000548 0.449225 
0.273902 0.014439 0.445847 
0.310842 -0.000581 0.447908 
0.273921 0.014365 0.445188 
0.273892 0.014180 0.444555 
0.310739 -0.001056 0.446691 
0.273818 0.013890 0.443971 
0.273701 0.013508 0.443460 
0.310467 -0.001898 0.445760 
0.273546 0.013048 0.443040 
0.273358 0.012527 0.442728 
0.310279 -0.002419 0.445448 
0.273145 0.011965 0.442536 
0.309836 -0.003562 0.445191 
0.272914 0.011384 0.442471 
0.309597 -0.004139 0.445255 
0.272676 0.010807 0.442536 
0.309360 -0.004691 0.445448 
0.272438 0.010255 0.442728 
0.272211 0.009750 0.443040 
0.309132 -0.005196 0.445760 
0.272002 0.009311 0.443460 
0.308742 -0.005991 0.446691 
0.271821 0.008955 0.443971 
0.308594 -0.006250 0.447275 
0.271673 0.008696 0.444555 
0.308621 -0.005512 0.450954 
0.310320 -0.001315 0.450954 
0.271564 0.008543 0.445188 
0.308485 -0.006403 0.447908 
0.308965 -0.004531 0.451686 
0.310823 -0.000507 0.448567 
0.310814 -0.000766 0.447275 
0.310622 -0.001438 0.446179 
0.310066 -0.002981 0.445255 
0.308924 -0.005635 0.446179 
0.308836 -0.006611 0.442002 
0.271896 0.008409 0.439941 
0.271915 0.008335 0.439282 
0.308846 -0.006352 0.443294 
0.271925 0.008594 0.440574 
0.271999 0.008883 0.441158 
0.308920 -0.006063 0.443877 
0.272116 0.009265 0.441669 
0.309037 -0.005681 0.444389 
0.272271 0.009726 0.442089 
0.309380 -0.004699 0.445121 
0.272459 0.010247 0.442401 
0.309593 -0.004137 0.445313 
0.272672 0.010809 0.442593 
0.272903 0.011389 0.442658 
0.310062 -0.002979 0.445313 
0.273141 0.011966 0.442593 
0.310300 -0.002428 0.445121 
0.273379 0.012518 0.442401 
0.273606 0.013023 0.442089 
0.310527 -0.001923 0.444809 
0.273815 0.013462 0.441669 
0.310736 -0.001484 0.444389 
0.273996 0.013818 0.441158 
0.310918 -0.001128 0.443877 
0.274144 0.014077 0.440574 
0.311066 -0.000868 0.443294 
0.274253 0.014230 0.439941 
0.311174 -0.000716 0.442660 
0.274318 0.014270 0.439282 
0.311239 -0.000676 0.442002 
0.274336 0.014196 0.438623 
0.311257 -0.000749 0.441343 
0.274308 0.014011 0.437990 
0.311229 -0.000935 0.440710 
0.274234 0.013722 0.437406 
0.311038 -0.001606 0.439614 
0.274117 0.013340 0.436895 
0.273961 0.012879 0.436475 
0.310882 -0.002066 0.439195 
0.273773 0.012358 0.436163 
0.310481 -0.003149 0.438690 
0.273560 0.011797 0.435971 
0.310251 -0.003730 0.438626 
0.273330 0.011216 0.435906 
0.273091 0.010639 0.435971 
0.309775 -0.004859 0.438882 
0.272854 0.010087 0.436163 
0.272626 0.009582 0.436475 
0.309548 -0.005364 0.439195 
0.272418 0.009143 0.436895 
0.309157 -0.006159 0.440126 
0.272236 0.008787 0.437406 
0.272088 0.008528 0.437990 
0.309009 -0.006418 0.440710 
0.271980 0.008375 0.438623 
0.308901 -0.006571 0.441343 
0.308817 -0.006537 0.442660 
0.309192 -0.005220 0.444809 
0.309824 -0.003557 0.445378 
0.311155 -0.001224 0.440126 
0.310695 -0.002587 0.438882 
0.310013 -0.004307 0.438690 
0.309339 -0.005803 0.439614 
0.272330 0.008167 0.432717 
0.309233 -0.006705 0.436095 
0.272312 0.008241 0.433376 
0.309261 -0.006520 0.436729 
0.272340 0.008426 0.434009 
0.272414 0.008715 0.434593 
0.309452 -0.005849 0.437824 
0.272531 0.009097 0.435104 
0.272687 0.009558 0.435524 
0.309796 -0.004867 0.438556 
0.272875 0.010079 0.435836 
0.310009 -0.004306 0.438748 
0.273088 0.010640 0.436028 
0.273318 0.011221 0.436093 
0.310478 -0.003148 0.438748 
0.273557 0.011798 0.436028 
0.273794 0.012350 0.435836 
0.310943 -0.002091 0.438244 
0.274021 0.012855 0.435524 
0.274230 0.013294 0.435104 
0.311151 -0.001652 0.437824 
0.274412 0.013650 0.434593 
0.311333 -0.001296 0.437312 
0.274560 0.013909 0.434009 
0.311481 -0.001037 0.436729 
0.274668 0.014062 0.433376 
0.311654 -0.000844 0.435437 
0.274733 0.014102 0.432717 
0.274752 0.014028 0.432058 
0.311673 -0.000918 0.434778 
0.274723 0.013843 0.431425 
0.311570 -0.001392 0.433561 
0.274649 0.013554 0.430841 
0.311453 -0.001774 0.433049 
0.274532 0.013172 0.430330 
0.274377 0.012711 0.429910 
0.311298 -0.002235 0.432630 
0.274189 0.012190 0.429598 
0.310897 -0.003317 0.432125 
0.273976 0.011629 0.429406 
0.310667 -0.003898 0.432061 
0.273745 0.011048 0.429341 
0.310428 -0.004475 0.432125 
0.273507 0.010471 0.429406 
0.310191 -0.005027 0.432318 
0.273269 0.009919 0.429598 
0.273042 0.009414 0.429910 
0.309755 -0.005971 0.433049 
0.272833 0.008975 0.430330 
0.309573 -0.006327 0.433561 
0.272652 0.008619 0.430841 
0.272504 0.008360 0.431425 
0.309335 -0.006231 0.437312 
0.309316 -0.006739 0.434778 
0.272395 0.008207 0.432058 
0.309252 -0.006779 0.435437 
0.309608 -0.005388 0.438244 
0.310239 -0.003725 0.438813 
0.310715 -0.002596 0.438556 
0.311589 -0.000884 0.436095 
0.311645 -0.001103 0.434145 
0.311110 -0.002756 0.432318 
0.309963 -0.005532 0.432630 
0.309425 -0.006586 0.434145 
0.309667 -0.006947 0.428872 
0.272727 0.008072 0.426811 
0.272746 0.007999 0.426152 
0.309649 -0.006873 0.429530 
0.272756 0.008258 0.427444 
0.309677 -0.006688 0.430164 
0.272830 0.008547 0.428028 
0.309751 -0.006399 0.430747 
0.272947 0.008929 0.428539 
0.309868 -0.006017 0.431259 
0.273102 0.009389 0.428959 
0.310023 -0.005556 0.431679 
0.273290 0.009910 0.429271 
0.310424 -0.004474 0.432183 
0.273503 0.010472 0.429463 
0.273734 0.011053 0.429528 
0.310655 -0.003893 0.432248 
0.273972 0.011630 0.429463 
0.310893 -0.003316 0.432183 
0.274210 0.012182 0.429271 
0.311131 -0.002764 0.431991 
0.274437 0.012687 0.428959 
0.311358 -0.002259 0.431679 
0.274646 0.013126 0.428539 
0.311749 -0.001464 0.430747 
0.274827 0.013482 0.428028 
0.311897 -0.001205 0.430164 
0.274975 0.013741 0.427444 
0.275084 0.013894 0.426811 
0.312005 -0.001052 0.429530 
0.275149 0.013934 0.426152 
0.312088 -0.001086 0.428213 
0.275167 0.013860 0.425493 
0.275139 0.013675 0.424860 
0.312060 -0.001271 0.427580 
0.275065 0.013386 0.424276 
0.311869 -0.001942 0.426484 
0.274948 0.013004 0.423765 
0.274792 0.012543 0.423345 
0.311713 -0.002403 0.426065 
0.274604 0.012022 0.423033 
0.311312 -0.003486 0.425560 
0.274391 0.011460 0.422841 
0.311082 -0.004066 0.425496 
0.274161 0.010880 0.422776 
