0.083454 0.005648 0.061326 
0.083031 0.005775 0.059421 
0.083828 0.005456 0.059474 
0.082602 0.005946 0.059393 
0.086525 0.007278 -0.028760 
0.086287 0.007437 -0.024621 
0.086656 0.007224 -0.028751 
0.086153 0.007492 -0.024629 
0.086031 0.007559 -0.020813 
0.086650 0.007291 -0.024595 
0.087015 0.007079 -0.028726 
0.086399 0.007411 -0.020788 
0.087004 0.006962 -0.033311 
0.086507 0.007286 -0.028761 
0.086133 0.007501 -0.024631 
0.085893 0.007615 -0.020822 
0.085712 0.007676 -0.017245 
0.085872 0.007625 -0.020824 
0.085737 0.007664 -0.017243 
0.085878 0.007607 -0.017233 
0.086252 0.007456 -0.017207 
0.087112 0.007124 -0.020736 
0.087356 0.007007 -0.024545 
0.087716 0.006797 -0.028677 
0.074200 0.007735 0.096292 
0.074320 0.008533 0.098191 
0.074342 0.007686 0.096302 
0.074174 0.008579 0.098183 
0.074378 0.009417 0.100016 
0.074724 0.008407 0.098213 
0.074732 0.007552 0.096325 
0.074795 0.009299 0.100036 
0.074357 0.007052 0.094093 
0.074182 0.007741 0.096290 
0.074156 0.008585 0.098181 
0.074226 0.009460 0.100008 
0.074208 0.009465 0.100006 
0.075612 0.009066 0.100074 
0.075512 0.008160 0.098254 
0.075492 0.007290 0.096370 
0.073634 0.007882 0.131781 
0.073931 0.008553 0.130841 
0.073803 0.008603 0.130830 
0.073450 0.007155 0.132519 
0.073761 0.007831 0.131791 
0.074287 0.008414 0.130868 
0.073576 0.007104 0.132530 
0.074112 0.007690 0.131818 
0.073788 0.008609 0.130828 
0.073618 0.007888 0.131779 
0.073432 0.007162 0.132518 
0.073237 0.006447 0.133044 
0.073255 0.006439 0.133046 
0.073382 0.006388 0.133056 
0.073925 0.006963 0.132556 
0.073731 0.006247 0.133083 
0.074609 0.006686 0.132608 
0.074801 0.007415 0.131870 
0.074986 0.008141 0.130921 
0.075163 0.008852 0.129762 
0.083360 0.005115 0.053770 
0.083231 0.005354 0.055772 
0.083537 0.005043 0.053781 
0.083052 0.005427 0.055761 
0.082928 0.005672 0.057601 
0.083659 0.005182 0.055801 
0.083963 0.004872 0.053810 
0.083357 0.005500 0.057629 
0.083654 0.004882 0.051489 
0.083313 0.005137 0.053768 
0.083005 0.005449 0.055759 
0.082749 0.005745 0.057589 
0.082702 0.005767 0.057587 
0.084154 0.005182 0.057682 
0.084455 0.004864 0.055854 
0.084757 0.004555 0.053863 
0.085667 0.004159 0.025963 
0.085771 0.004367 0.026440 
0.085770 0.004418 0.025964 
0.085669 0.004109 0.026439 
0.085788 0.004342 0.026639 
0.085812 0.004457 0.026442 
0.085812 0.004509 0.025966 
0.085829 0.004432 0.026640 
0.085689 0.004246 0.025070 
0.085686 0.004085 0.026638 
0.085712 0.004074 0.026700 
0.085814 0.004331 0.026701 
0.085855 0.004420 0.026702 
0.085836 0.004603 0.025074 
0.085793 0.004510 0.025072 
0.084701 0.004256 0.042742 
0.084398 0.004546 0.045882 
0.084798 0.004502 0.042740 
0.084303 0.004305 0.045885 
0.083984 0.004634 0.048837 
0.084438 0.004629 0.045881 
0.084838 0.004588 0.042739 
0.084024 0.004716 0.048835 
0.085049 0.004223 0.039526 
0.083891 0.004397 0.048840 
0.083500 0.004560 0.051494 
0.083594 0.004798 0.051491 
0.083634 0.004879 0.051489 
0.085188 0.004562 0.039524 
0.085148 0.004474 0.039524 
0.074034 0.010583 0.124877 
0.074104 0.010427 0.126695 
0.074161 0.010929 0.124877 
0.073985 0.010104 0.126694 
0.074016 0.009841 0.128289 
0.074145 0.010547 0.126695 
0.074206 0.011057 0.124878 
0.074054 0.009951 0.128289 
0.074054 0.010959 0.122829 
0.073908 0.009546 0.128288 
0.073802 0.008930 0.129664 
0.073899 0.009195 0.129665 
0.073933 0.009293 0.129665 
0.074236 0.011456 0.122830 
0.074188 0.011322 0.122830 
0.085757 0.004058 0.027043 
0.085841 0.004321 0.026775 
0.085739 0.004064 0.026774 
0.085755 0.004060 0.027700 
0.085859 0.004315 0.027044 
0.085882 0.004411 0.026776 
0.085857 0.004317 0.027701 
0.085900 0.004405 0.027045 
0.085721 0.004074 0.028938 
0.085822 0.004331 0.028938 
0.085898 0.004407 0.027702 
0.085864 0.004421 0.028938 
0.075775 0.005987 0.085372 
0.075227 0.006281 0.088442 
0.075832 0.006153 0.085372 
0.074652 0.006369 0.091426 
0.075172 0.006120 0.088442 
0.075246 0.006340 0.088443 
0.075853 0.006213 0.085372 
0.074707 0.006532 0.091426 
0.076397 0.005904 0.082446 
0.074277 0.006801 0.094092 
0.074336 0.006977 0.094092 
0.074725 0.006592 0.091426 
0.074356 0.007042 0.094093 
0.076480 0.006139 0.082446 
0.076458 0.006076 0.082446 
0.072798 0.005175 0.133306 
0.073019 0.005772 0.133307 
0.073009 0.005811 0.133165 
0.072559 0.004506 0.133358 
0.072806 0.005115 0.133466 
0.073029 0.005759 0.133360 
0.072576 0.004461 0.133523 
0.072817 0.005092 0.133524 
0.073193 0.006412 0.132893 
0.072249 0.003843 0.133040 
0.072294 0.003824 0.133364 
0.072326 0.003812 0.133530 
0.072590 0.004442 0.133582 
0.072345 0.003804 0.133590 
0.072599 0.004436 0.133590 
0.072824 0.005086 0.133531 
0.073035 0.005755 0.133367 
0.073232 0.006447 0.133039 
0.073218 0.006438 0.132997 
0.085424 0.007117 -0.013821 
0.085572 0.007456 -0.010497 
0.085573 0.007511 -0.013818 
0.085422 0.007065 -0.010501 
0.085621 0.007357 -0.007268 
0.085630 0.007652 -0.013814 
0.085629 0.007596 -0.010493 
0.085496 0.007119 -0.017253 
0.085472 0.006970 -0.007274 
0.085554 0.006838 -0.004117 
0.085701 0.007219 -0.004111 
0.085679 0.007494 -0.007263 
0.085759 0.007354 -0.004105 
0.085695 0.007507 -0.007259 
0.085643 0.007610 -0.010489 
0.085643 0.007668 -0.013811 
0.085702 0.007659 -0.017247 
0.085646 0.007515 -0.017250 
0.082842 0.005111 0.055766 
0.083251 0.005052 0.053771 
0.083155 0.004810 0.053775 
0.082534 0.005418 0.057595 
0.082941 0.005361 0.055762 
0.083293 0.005135 0.053769 
0.082636 0.005676 0.057591 
0.082984 0.005447 0.055760 
0.082205 0.005684 0.059388 
0.082310 0.005948 0.059383 
0.082680 0.005765 0.057589 
0.073669 0.008281 0.130825 
0.073588 0.007813 0.131770 
0.073754 0.008511 0.130827 
0.073519 0.007631 0.131753 
0.073408 0.007120 0.132491 
0.073615 0.007879 0.131778 
0.073785 0.008596 0.130828 
0.073428 0.007157 0.132515 
0.073359 0.007008 0.132437 
0.074044 0.008245 0.098180 
0.074158 0.007655 0.096290 
0.074089 0.007452 0.096289 
0.074075 0.009070 0.100005 
0.074127 0.008483 0.098180 
0.074181 0.007730 0.096290 
0.074173 0.009347 0.100005 
0.074155 0.008572 0.098180 
0.074118 0.009821 0.102007 
0.074229 0.010133 0.102007 
0.074207 0.009450 0.100006 
0.074268 0.010249 0.102007 
0.085921 0.006940 -0.024634 
0.086446 0.007122 -0.028762 
0.086297 0.006727 -0.028762 
0.085657 0.007065 -0.020829 
0.086070 0.007337 -0.024633 
0.086500 0.007266 -0.028761 
0.085807 0.007463 -0.020828 
0.086125 0.007482 -0.024632 
0.086798 0.006409 -0.033311 
0.085863 0.007607 -0.020826 
0.086998 0.006942 -0.033311 
0.086945 0.006799 -0.033311 
0.081836 0.005871 0.061240 
0.081532 0.006243 0.063127 
0.081941 0.006137 0.061235 
0.081428 0.005979 0.063131 
0.081092 0.006274 0.065007 
0.081576 0.006334 0.063124 
0.081986 0.006229 0.061232 
0.081135 0.006363 0.065005 
0.080992 0.006016 0.065011 
0.080534 0.005991 0.066832 
0.080630 0.006240 0.066828 
0.080671 0.006326 0.066826 
0.082355 0.006039 0.059381 
0.085867 0.004773 0.019720 
0.085911 0.004841 0.021840 
0.085982 0.005063 0.019724 
0.085800 0.004561 0.021837 
0.085844 0.004653 0.023667 
0.085957 0.004939 0.021843 
0.086030 0.005165 0.019727 
0.085888 0.004748 0.023670 
0.085923 0.005009 0.017448 
0.085736 0.004382 0.023665 
0.086092 0.005416 0.017457 
0.086043 0.005311 0.017453 
0.074088 0.010838 0.107012 
0.074242 0.010749 0.104365 
0.074119 0.010410 0.104364 
0.074047 0.011128 0.109822 
0.074219 0.011197 0.107012 
0.074285 0.010875 0.104365 
0.074183 0.011499 0.109823 
0.074265 0.011329 0.107012 
0.074017 0.011302 0.112668 
0.074156 0.011681 0.112668 
0.074231 0.011636 0.109823 
0.074206 0.011820 0.112668 
0.088104 0.005435 -0.043488 
0.088912 0.005154 -0.048536 
0.088777 0.004802 -0.048535 
0.087420 0.005976 -0.038305 
0.088244 0.005804 -0.043489 
0.088961 0.005284 -0.048536 
0.087564 0.006357 -0.038305 
0.088294 0.005940 -0.043489 
0.089366 0.004091 -0.053119 
0.087616 0.006497 -0.038305 
0.089542 0.004542 -0.053119 
0.089494 0.004421 -0.053119 
0.080063 0.005916 0.068560 
0.079666 0.006042 0.070232 
0.080154 0.006153 0.068557 
0.079581 0.005818 0.070235 
0.079168 0.005939 0.071912 
0.079702 0.006120 0.070231 
0.080192 0.006236 0.068555 
0.079200 0.006013 0.071911 
0.079088 0.005727 0.071914 
0.078586 0.005675 0.073655 
0.078660 0.005875 0.073653 
0.078691 0.005946 0.073652 
0.085644 0.004103 0.030884 
0.085614 0.004399 0.033419 
0.085745 0.004360 0.030884 
0.085513 0.004143 0.033420 
0.085419 0.004440 0.036360 
0.085656 0.004489 0.033419 
0.085787 0.004450 0.030884 
0.085460 0.004529 0.036360 
0.085318 0.004185 0.036361 
0.089492 -0.001915 -0.065086 
0.089941 -0.000983 -0.065423 
0.089601 -0.001997 -0.065604 
0.089842 -0.000895 -0.064922 
0.090194 0.000002 -0.064924 
0.089993 -0.001020 -0.065604 
0.089658 -0.002033 -0.065791 
0.090245 -0.000016 -0.065088 
0.088871 -0.002886 -0.064087 
0.089081 -0.002971 -0.065109 
0.090098 0.000048 -0.064475 
0.090237 0.000905 -0.063619 
0.090337 0.000954 -0.063945 
0.090387 0.000970 -0.064075 
0.089267 -0.003046 -0.065816 
0.089204 -0.003021 -0.065629 
0.085947 0.005776 0.010274 
0.086093 0.005844 0.012754 
0.086080 0.006113 0.010281 
0.085964 0.005518 0.012748 
0.086081 0.005574 0.015132 
0.086147 0.005957 0.012760 
0.086135 0.006231 0.010286 
0.086132 0.005683 0.015137 
0.085902 0.006026 0.007667 
0.085956 0.005260 0.015127 
0.086096 0.006496 0.007681 
0.086039 0.006375 0.007674 
0.074014 0.011377 0.115437 
0.074171 0.011731 0.118077 
0.074155 0.011759 0.115437 
0.074030 0.011350 0.118077 
0.074187 0.011588 0.120554 
0.074221 0.011872 0.118077 
0.074206 0.011900 0.115437 
0.074237 0.011727 0.120554 
0.074048 0.011214 0.120553 
0.090240 0.001712 -0.062175 
0.090214 0.002764 -0.060038 
0.090347 0.001875 -0.062344 
0.089811 0.003319 -0.056962 
0.090101 0.002516 -0.059985 
0.090260 0.002851 -0.060061 
0.090395 0.001929 -0.062418 
0.089931 0.003618 -0.056969 
0.089978 0.003726 -0.056971 
0.078073 0.005682 0.075515 
0.077611 0.005922 0.077556 
0.078144 0.005874 0.075514 
0.077544 0.005737 0.077557 
0.077052 0.005997 0.079846 
0.077637 0.005988 0.077556 
0.078172 0.005942 0.075513 
0.077076 0.006061 0.079846 
0.076988 0.005818 0.079846 
0.085648 0.006672 -0.001020 
0.085887 0.006846 0.002003 
0.085794 0.007047 -0.001013 
0.085744 0.006479 0.001996 
0.085973 0.006620 0.004909 
0.085946 0.006975 0.002010 
0.085852 0.007179 -0.001007 
0.086030 0.006746 0.004915 
0.085832 0.006262 0.004902 
0.088562 0.003888 0.022047 
0.090047 0.003424 0.020046 
0.088649 0.004108 0.019934 
0.088479 0.003702 0.023871 
0.089956 0.003209 0.022158 
0.091373 0.002550 0.020158 
0.089870 0.003028 0.023981 
0.091281 0.002348 0.022269 
0.088726 0.004354 0.017667 
0.088417 0.003561 0.025273 
0.089804 0.002891 0.025382 
0.091194 0.002179 0.024091 
0.091127 0.002050 0.025492 
0.092180 0.001162 0.024184 
0.092264 0.001312 0.022362 
0.092354 0.001490 0.020252 
0.092432 0.001691 0.017987 
0.091455 0.002776 0.017893 
0.090127 0.003663 0.017780 
0.084671 0.005146 0.061407 
0.085674 0.004572 0.063395 
0.086098 0.004460 0.061504 
0.084250 0.005255 0.063298 
0.085215 0.004611 0.065275 
0.087035 0.003716 0.063492 
0.087461 0.003601 0.061601 
0.086573 0.003764 0.065372 
0.085046 0.004954 0.059555 
0.083795 0.005290 0.065179 
0.083313 0.005260 0.067000 
0.084728 0.004586 0.067096 
0.086084 0.003751 0.067192 
0.087109 0.002769 0.067271 
0.087596 0.002761 0.065452 
0.088057 0.002700 0.063572 
0.088484 0.002579 0.061682 
0.087841 0.003410 0.059750 
0.088867 0.002390 0.059831 
0.086475 0.004268 0.059653 
0.088807 0.006333 -0.028597 
0.089736 0.005855 -0.024366 
0.090080 0.005651 -0.028500 
0.088220 0.006654 -0.020655 
0.088455 0.006540 -0.024465 
0.090926 0.004916 -0.024266 
0.091262 0.004719 -0.028400 
0.089513 0.005965 -0.020556 
0.089288 0.006015 -0.033148 
0.086974 0.007166 -0.017155 
0.088094 0.006692 -0.017072 
0.089400 0.005999 -0.016971 
0.090714 0.005021 -0.020455 
0.090614 0.005051 -0.016869 
0.091547 0.003789 -0.020368 
0.091750 0.003690 -0.024181 
0.092079 0.003501 -0.028315 
0.091732 0.004413 -0.032952 
0.092545 0.003208 -0.032868 
0.090555 0.005338 -0.033051 
0.076679 0.006869 0.096439 
0.078189 0.007196 0.098394 
0.078081 0.006294 0.096522 
0.076742 0.007759 0.098317 
0.078379 0.008132 0.100205 
0.079556 0.006470 0.098475 
0.079423 0.005583 0.096607 
0.079772 0.007387 0.100282 
0.076784 0.006138 0.094252 
0.076888 0.008685 0.100133 
0.077028 0.009523 0.102130 
0.078557 0.008977 0.102201 
0.079969 0.008213 0.102276 
0.080932 0.007194 0.102345 
0.080748 0.006430 0.100352 
0.080546 0.005579 0.098546 
0.080426 0.004753 0.096681 
0.079474 0.004850 0.094431 
0.080486 0.004063 0.094507 
0.078152 0.005552 0.094342 
0.075878 0.006972 0.131950 
0.077374 0.007096 0.131102 
0.076080 0.007700 0.131004 
0.075676 0.006248 0.132685 
0.077146 0.006388 0.132039 
0.078609 0.006346 0.131198 
0.076913 0.005703 0.132755 
0.078349 0.005695 0.132115 
0.076286 0.008419 0.129848 
0.074413 0.005971 0.133135 
0.075475 0.005538 0.133209 
0.076698 0.005029 0.133259 
0.078053 0.005110 0.132788 
0.078513 0.004206 0.133164 
0.078886 0.004465 0.132819 
0.079254 0.004901 0.132181 
0.079531 0.005461 0.131276 
0.079774 0.006085 0.130132 
0.078861 0.007033 0.130052 
0.077608 0.007812 0.129951 
0.085971 0.004055 0.053945 
0.087102 0.003683 0.056033 
0.087399 0.003379 0.054043 
0.085672 0.004363 0.055936 
0.086803 0.003995 0.057861 
0.088471 0.002840 0.056131 
0.088768 0.002545 0.054141 
0.088171 0.003143 0.057959 
0.086298 0.003805 0.051666 
0.085373 0.004679 0.057764 
0.089202 0.002136 0.058040 
0.089506 0.001849 0.056213 
0.089805 0.001571 0.054223 
0.089086 0.002305 0.051863 
0.090123 0.001344 0.051945 
0.087720 0.003132 0.051765 
0.088106 0.006596 -0.010305 
0.089383 0.005972 -0.013530 
0.088063 0.006670 -0.013633 
0.088199 0.006478 -0.007069 
0.089442 0.005894 -0.010200 
0.090613 0.005021 -0.013426 
0.089552 0.005771 -0.006962 
0.090688 0.004939 -0.010094 
0.086930 0.007148 -0.013717 
0.086958 0.007080 -0.010391 
0.087038 0.006966 -0.007157 
0.088321 0.006321 -0.003904 
0.089689 0.005610 -0.003796 
0.090815 0.004814 -0.006854 
0.090968 0.004653 -0.003686 
0.091705 0.003579 -0.006762 
0.091563 0.003702 -0.010004 
0.091472 0.003784 -0.013337 
0.091459 0.003816 -0.016781 
0.075068 0.004181 0.133694 
0.076521 0.004354 0.133571 
0.075276 0.004849 0.133530 
0.074845 0.003529 0.133753 
0.076346 0.003683 0.133731 
0.077700 0.003912 0.133516 
0.076133 0.003021 0.133790 
0.077605 0.003229 0.133665 
0.074212 0.005279 0.133457 
0.074001 0.004610 0.133621 
0.073776 0.003959 0.133680 
0.073533 0.003323 0.133688 
0.074600 0.002891 0.133761 
0.075885 0.002371 0.133797 
0.077418 0.002539 0.133721 
0.078201 0.001433 0.133483 
0.078479 0.002186 0.133477 
0.078649 0.002937 0.133430 
0.078645 0.003659 0.133312 
0.077804 0.004545 0.133239 
0.078258 0.005241 0.085544 
0.078977 0.004778 0.088708 
0.079603 0.004629 0.085639 
0.077635 0.005383 0.088613 
0.078468 0.005060 0.091686 
0.080284 0.004071 0.088802 
0.080912 0.003911 0.085734 
0.079778 0.004359 0.091778 
0.078912 0.005155 0.082618 
0.077119 0.005656 0.091593 
0.080796 0.003591 0.091855 
0.081305 0.003301 0.088879 
0.081934 0.003129 0.085811 
0.081579 0.003808 0.082808 
0.082603 0.003007 0.082886 
0.080265 0.004537 0.082714 
0.088459 0.003372 0.027238 
0.089824 0.002712 0.027077 
0.088443 0.003377 0.026970 
0.088455 0.003374 0.027894 
0.089839 0.002707 0.027345 
0.091142 0.001882 0.027185 
0.089835 0.002710 0.028000 
0.091156 0.001877 0.027452 
0.088418 0.003386 0.026897 
0.088421 0.003388 0.029129 
0.089801 0.002724 0.029235 
0.091152 0.001879 0.028107 
0.091118 0.001894 0.029341 
0.092137 0.000895 0.028197 
0.092141 0.000892 0.027542 
0.092127 0.000897 0.027275 
0.092105 0.000905 0.027203 
0.091118 0.001890 0.027112 
0.089799 0.002721 0.027004 
0.076693 0.009749 0.126901 
0.078331 0.009725 0.125214 
0.076861 0.010301 0.125094 
0.076495 0.009111 0.128483 
0.078111 0.009160 0.127016 
0.079683 0.008916 0.125328 
0.077860 0.008511 0.128591 
0.079425 0.008356 0.127127 
0.076980 0.010735 0.123050 
0.079139 0.007716 0.128697 
0.080046 0.006715 0.128779 
0.080331 0.007309 0.127211 
0.080590 0.007831 0.125414 
0.080788 0.008244 0.123376 
0.079877 0.009358 0.123289 
0.078495 0.010171 0.123173 
0.087439 0.003538 0.042920 
0.088467 0.002903 0.046160 
0.088837 0.002871 0.043020 
0.087060 0.003571 0.046060 
0.088084 0.002979 0.049112 
0.089816 0.002078 0.046260 
0.090177 0.002044 0.043121 
0.089442 0.002155 0.049211 
0.087771 0.003520 0.039706 
0.086668 0.003649 0.049013 
0.090473 0.001196 0.049294 
0.090837 0.001115 0.046343 
0.091186 0.001074 0.043205 
0.090492 0.002024 0.039910 
0.091492 0.001046 0.039995 
0.089162 0.002853 0.039808 
0.088381 0.003420 0.026638 
0.089771 0.002803 0.026272 
0.088385 0.003470 0.026164 
0.088394 0.003396 0.026836 
0.089764 0.002754 0.026746 
0.091092 0.001967 0.026381 
0.089777 0.002731 0.026944 
0.091085 0.001921 0.026855 
0.091096 0.001900 0.027052 
0.092084 0.000915 0.027142 
0.092073 0.000934 0.026946 
0.092080 0.000975 0.026473 
0.092114 0.001049 0.025583 
0.088572 0.005916 0.002220 
0.089831 0.005419 -0.000690 
0.088449 0.006132 -0.000801 
0.088678 0.005679 0.005129 
0.089965 0.005202 0.002333 
0.091124 0.004464 -0.000579 
0.090079 0.004965 0.005243 
0.091271 0.004251 0.002445 
0.088756 0.005424 0.007896 
0.090163 0.004713 0.008010 
0.091395 0.004020 0.005357 
0.091485 0.003775 0.008125 
0.092340 0.002821 0.005452 
0.092204 0.003038 0.002540 
0.092045 0.003240 -0.000485 
0.091874 0.003423 -0.003593 
0.080691 0.004924 0.075686 
0.081498 0.004351 0.077824 
0.082071 0.004287 0.075781 
0.080127 0.004982 0.077729 
0.080898 0.004442 0.080113 
0.082827 0.003601 0.077918 
0.083407 0.003526 0.075876 
0.082220 0.003702 0.080208 
0.081237 0.004917 0.073825 
0.079537 0.005067 0.080018 
0.083247 0.002885 0.080285 
0.083857 0.002768 0.077996 
0.084441 0.002675 0.075953 
0.083969 0.003499 0.074015 
0.085004 0.002627 0.074093 
0.082626 0.004273 0.073921 
0.092655 0.001014 -0.062253 
0.093768 0.001325 -0.059778 
0.093864 0.000451 -0.062087 
0.092525 0.001935 -0.059897 
0.093503 0.002172 -0.056709 
0.094924 0.000564 -0.059632 
0.094947 -0.000193 -0.061830 
0.094687 0.001345 -0.056606 
0.092645 0.000056 -0.063910 
0.092245 0.002809 -0.056807 
0.091810 0.003623 -0.052955 
0.093071 0.002973 -0.052859 
0.094253 0.002113 -0.052762 
0.095092 0.001029 -0.052680 
0.095539 0.000320 -0.056520 
0.095760 -0.000365 -0.059521 
0.095707 -0.000951 -0.061642 
0.095485 -0.001338 -0.062819 
0.094864 -0.000968 -0.063280 
0.093833 -0.000461 -0.063689 
0.077054 0.011183 0.118283 
0.078616 0.010663 0.115734 
0.077051 0.011215 0.115628 
0.077039 0.011027 0.120770 
0.078613 0.010630 0.118398 
0.080035 0.009847 0.115838 
0.078582 0.010470 0.120890 
0.080027 0.009813 0.118508 
0.077054 0.011136 0.112841 
0.079985 0.009655 0.121005 
0.080897 0.008522 0.121092 
0.080941 0.008669 0.118593 
0.080953 0.008702 0.115920 
0.080965 0.008634 0.113113 
0.080043 0.009773 0.113035 
0.078621 0.010586 0.112938 
0.088805 0.004886 0.012974 
0.090206 0.004450 0.010617 
0.088798 0.005158 0.010502 
0.088779 0.004616 0.015350 
0.090212 0.004183 0.013088 
0.091534 0.003523 0.010731 
0.090185 0.003919 0.015464 
0.091541 0.003269 0.013203 
0.091514 0.003018 0.015577 
0.092487 0.001907 0.015673 
0.092510 0.002133 0.013299 
0.092496 0.002364 0.010827 
0.092441 0.002595 0.008221 
0.091926 -0.002951 -0.065625 
0.093496 -0.002422 -0.065163 
0.093173 -0.003443 -0.065343 
0.092259 -0.001937 -0.065439 
0.093713 -0.001423 -0.064666 
0.094366 -0.003888 -0.064729 
0.094665 -0.002848 -0.064568 
0.091536 -0.003965 -0.065650 
0.092506 -0.000931 -0.064923 
0.094806 -0.001858 -0.064130 
0.095610 -0.002071 -0.063204 
0.095553 -0.003079 -0.063511 
0.095265 -0.004175 -0.063633 
0.094838 -0.005301 -0.063649 
0.093963 -0.004947 -0.064750 
0.092779 -0.004468 -0.065367 
0.088218 0.003454 0.033606 
0.089726 0.002753 0.031178 
0.088345 0.003417 0.031073 
0.088029 0.003491 0.036544 
0.089600 0.002789 0.033710 
0.091044 0.001922 0.031283 
0.089416 0.002825 0.036647 
0.090921 0.001958 0.033814 
0.090740 0.001995 0.036750 
0.091732 0.001013 0.036836 
0.091909 0.000974 0.033901 
0.092030 0.000937 0.031371 
0.092103 0.000909 0.029430 
0.082814 0.005178 0.068728 
0.083703 0.004412 0.070500 
0.084223 0.004511 0.068824 
0.082300 0.005071 0.070404 
0.083171 0.004322 0.072180 
0.085054 0.003607 0.070595 
0.085577 0.003690 0.068920 
0.084518 0.003534 0.072275 
0.081774 0.004973 0.072084 
0.085552 0.002636 0.072353 
0.086086 0.002681 0.070674 
0.086605 0.002734 0.068999 
0.072845 0.005078 0.133532 
0.073183 0.005695 0.133378 
0.073055 0.005747 0.133368 
0.072621 0.004427 0.133591 
0.072973 0.005026 0.133542 
0.073530 0.005555 0.133405 
0.072750 0.004375 0.133601 
0.073321 0.004885 0.133569 
0.072355 0.003800 0.133598 
0.072378 0.003791 0.133599 
0.072506 0.003739 0.133608 
0.073097 0.004234 0.133628 
0.072853 0.003598 0.133635 
0.085674 0.007595 -0.010486 
0.085816 0.007595 -0.013798 
0.085670 0.007655 -0.013809 
0.085729 0.007491 -0.007255 
0.085826 0.007533 -0.010474 
0.086198 0.007442 -0.013771 
0.085886 0.007426 -0.007243 
0.086215 0.007377 -0.010446 
0.086284 0.007267 -0.007213 
0.092624 -0.000009 0.024245 
0.092667 -0.001216 0.022457 
0.092701 0.000110 0.022424 
0.092602 -0.001296 0.024278 
0.092307 -0.002621 0.022471 
0.092733 -0.001119 0.020348 
0.092781 0.000253 0.020314 
0.092355 -0.002577 0.020362 
0.092564 -0.000099 0.025644 
0.092551 -0.001356 0.025677 
0.092257 -0.002656 0.024292 
0.092219 -0.002681 0.025691 
0.091735 -0.004045 0.024295 
0.091767 -0.004058 0.022474 
0.091794 -0.004069 0.020365 
0.091805 -0.004074 0.018101 
0.092390 -0.002521 0.018098 
0.092787 -0.001007 0.018084 
0.092851 0.000415 0.018050 
0.092538 -0.000207 0.027202 
0.092522 -0.001419 0.027038 
0.092527 -0.000190 0.027006 
0.092533 -0.001433 0.027235 
0.092200 -0.002713 0.027052 
0.092525 -0.001395 0.026566 
0.092533 -0.000157 0.026533 
0.092200 -0.002700 0.026579 
0.092558 -0.000217 0.027262 
0.092553 -0.001441 0.027295 
0.092212 -0.002722 0.027249 
0.092232 -0.002731 0.027309 
0.091718 -0.004039 0.027251 
0.091704 -0.004033 0.027055 
0.091701 -0.004031 0.026582 
0.091710 -0.004035 0.025694 
0.092589 -0.000227 0.028256 
0.092587 -0.001454 0.027634 
0.092594 -0.000229 0.027602 
0.092582 -0.001452 0.028288 
0.092266 -0.002744 0.027647 
0.092574 -0.001449 0.027367 
0.092580 -0.000224 0.027334 
0.092253 -0.002739 0.027381 
0.092555 -0.000213 0.029488 
0.092549 -0.001438 0.029520 
0.092261 -0.002742 0.028301 
0.092227 -0.002728 0.029534 
0.091766 -0.004058 0.028304 
0.091771 -0.004060 0.027650 
0.091759 -0.004055 0.027383 
0.091738 -0.004046 0.027311 
0.092365 -0.000147 0.033958 
0.092478 -0.001410 0.031461 
0.092483 -0.000185 0.031429 
0.092193 -0.000104 0.036893 
0.092362 -0.001370 0.033989 
0.092157 -0.002700 0.031474 
0.092195 -0.001321 0.036924 
0.092043 -0.002658 0.034002 
0.091961 -0.000062 0.040051 
0.091971 -0.001267 0.040081 
0.091881 -0.002601 0.036936 
0.091664 -0.002533 0.040093 
0.091392 -0.003907 0.036939 
0.091551 -0.003971 0.034005 
0.091663 -0.004016 0.031477 
0.091733 -0.004045 0.029536 
0.092895 0.000591 0.015736 
0.092814 -0.000746 0.013396 
0.092908 0.000778 0.013362 
0.092816 -0.000882 0.015770 
0.092377 -0.002376 0.013411 
0.092775 -0.000600 0.010925 
0.092884 0.000972 0.010891 
0.092318 -0.002285 0.010940 
0.092399 -0.002454 0.015784 
0.091791 -0.004068 0.015787 
0.091746 -0.004050 0.013414 
0.091665 -0.004017 0.010943 
0.091543 -0.003968 0.008336 
0.092217 -0.002182 0.008333 
0.092692 -0.000446 0.008319 
0.092817 0.001169 0.008284 
0.092704 0.001366 0.005515 
0.092400 -0.000128 0.002638 
0.092555 0.001559 0.002603 
0.092564 -0.000288 0.005550 
0.091893 -0.001947 0.002652 
0.092213 0.000026 -0.000388 
0.092381 0.001741 -0.000422 
0.091691 -0.001825 -0.000373 
0.092072 -0.002068 0.005565 
0.091379 -0.003901 0.005568 
0.091183 -0.003822 0.002655 
0.090967 -0.003734 -0.000370 
0.090744 -0.003644 -0.003478 
0.091480 -0.001706 -0.003481 
0.092014 0.000171 -0.003496 
0.092196 0.001908 -0.003531 
0.092014 0.002053 -0.006701 
0.091652 0.000406 -0.009908 
0.091858 0.002169 -0.009943 
0.091819 0.000301 -0.006666 
0.091097 -0.001506 -0.009892 
0.091539 0.000477 -0.013241 
0.091754 0.002248 -0.013277 
0.090976 -0.001444 -0.013225 
0.091274 -0.001597 -0.006651 
0.090528 -0.003557 -0.006647 
0.090344 -0.003482 -0.009888 
0.090218 -0.003431 -0.013221 
0.090174 -0.003414 -0.016665 
0.090937 -0.001420 -0.016669 
0.091506 0.000505 -0.016686 
0.091730 0.002279 -0.016721 
0.091808 0.002254 -0.020308 
0.091768 0.000394 -0.024086 
0.092004 0.002161 -0.024121 
0.091577 0.000481 -0.020273 
0.091193 -0.001527 -0.024070 
0.092329 0.001984 -0.028257 
0.092091 0.000231 -0.028222 
0.091004 -0.001445 -0.020256 
0.090239 -0.003440 -0.020252 
0.090429 -0.003516 -0.024066 
0.091517 -0.001675 -0.028206 
0.090758 -0.003650 -0.028201 
0.091992 -0.001898 -0.032760 
0.092560 -0.000019 -0.032776 
0.092795 0.001710 -0.032810 
0.093173 -0.000362 -0.037773 
0.094084 0.000861 -0.042992 
0.093400 0.001332 -0.037807 
0.092617 -0.002200 -0.037758 
0.093872 -0.000781 -0.042959 
0.094773 0.000318 -0.048040 
0.093335 -0.002561 -0.042945 
0.094584 -0.001255 -0.048008 
0.093146 0.002801 -0.037864 
0.091242 -0.003846 -0.032756 
0.091882 -0.004105 -0.037754 
0.092623 -0.004405 -0.042941 
0.094075 -0.002956 -0.047994 
0.093395 -0.004717 -0.047990 
0.094766 -0.003362 -0.052579 
0.095237 -0.001763 -0.052593 
0.095394 -0.000279 -0.052624 
0.094495 0.001695 -0.048096 
0.093821 0.002292 -0.043049 
0.095753 -0.002274 -0.056446 
0.096110 -0.001473 -0.059501 
0.095869 -0.000901 -0.056470 
0.095332 -0.003747 -0.056435 
0.096040 -0.002719 -0.059526 
0.096037 -0.001905 -0.061715 
0.095674 -0.004054 -0.059538 
0.096001 -0.003018 -0.061859 
0.094129 -0.005014 -0.052576 
0.094749 -0.005265 -0.056433 
0.095149 -0.005427 -0.059538 
0.095686 -0.004218 -0.061923 
0.095216 -0.005454 -0.061931 
0.091392 -0.002451 0.043302 
0.091362 -0.001133 0.046426 
0.091078 -0.002354 0.046438 
0.091687 -0.001207 0.043290 
0.091328 0.000034 0.046397 
0.090742 -0.002237 0.049388 
0.091017 -0.001031 0.049376 
0.091183 -0.003822 0.040095 
0.090921 -0.003716 0.043304 
0.091666 -0.000021 0.043260 
0.090974 0.000124 0.049348 
0.090628 0.000268 0.051998 
0.090674 -0.000890 0.052027 
0.090401 -0.002097 0.052038 
0.089949 -0.003322 0.052040 
0.090290 -0.003460 0.049390 
0.090619 -0.003593 0.046440 
0.090350 -0.000701 0.054304 
0.089739 -0.001753 0.056305 
0.090069 -0.001934 0.054315 
0.090309 0.000479 0.054276 
0.090033 -0.000483 0.056293 
0.089399 -0.001567 0.058132 
0.090003 0.000731 0.056265 
0.089708 -0.000257 0.058121 
0.089608 -0.003184 0.054317 
0.089690 0.000991 0.058093 
0.089348 0.001226 0.059884 
0.089357 -0.000046 0.059912 
0.089038 -0.001385 0.059923 
0.088532 -0.002749 0.059925 
0.088905 -0.002900 0.058134 
0.089262 -0.003044 0.056307 
0.088969 0.000130 0.061762 
0.088227 -0.001063 0.063662 
0.088645 -0.001217 0.061773 
0.088962 0.001409 0.061734 
0.088546 0.000272 0.063651 
0.087790 -0.000923 0.065541 
0.088537 0.001540 0.063624 
0.088097 0.000381 0.065530 
0.088136 -0.002589 0.061775 
0.088080 0.001622 0.065503 
0.087601 0.001662 0.067322 
0.087631 0.000460 0.067349 
0.087340 -0.000797 0.067359 
0.087298 -0.002249 0.065542 
0.086868 -0.002075 0.067360 
0.087723 -0.002421 0.063664 
0.086884 -0.000684 0.069085 
0.086665 0.000562 0.070749 
0.086418 -0.000574 0.070758 
0.087107 0.001666 0.069049 
0.087154 0.000516 0.069075 
0.086159 0.000616 0.072427 
0.085935 -0.000456 0.072436 
0.086600 0.001656 0.070724 
0.086436 -0.001900 0.069086 
0.086076 0.001655 0.072402 
0.085536 0.001685 0.074142 
0.085634 0.000696 0.074167 
0.085430 -0.000320 0.074175 
0.085539 -0.001537 0.072437 
0.085057 -0.001342 0.074176 
0.085996 -0.001722 0.070759 
0.085086 0.000814 0.076026 
0.084334 0.000027 0.078076 
0.084897 -0.000158 0.076034 
0.084978 0.001764 0.076002 
0.084512 0.000964 0.078068 
0.083742 0.000228 0.080365 
0.084397 0.001882 0.078044 
0.083910 0.001132 0.080357 
0.084542 -0.001133 0.076035 
0.083788 0.002022 0.080334 
0.083147 0.002169 0.082934 
0.083277 0.001309 0.082957 
0.083120 0.000439 0.082965 
0.082806 -0.000431 0.082965 
0.083414 -0.000677 0.080366 
0.083994 -0.000912 0.078077 
0.082620 0.001489 0.085883 
0.081851 0.000885 0.088959 
0.082475 0.000656 0.085890 
0.082482 0.002317 0.085859 
0.081992 0.001698 0.088951 
0.081298 0.001137 0.091938 
0.081852 0.002506 0.088927 
0.081456 0.001969 0.091929 
0.082176 -0.000176 0.085891 
0.081332 0.002789 0.091904 
0.080995 0.003218 0.094557 
0.081074 0.002333 0.094585 
0.080867 0.001421 0.094596 
0.080517 0.000496 0.094599 
0.080992 0.000304 0.091940 
0.081558 0.000074 0.088960 
0.080888 0.002808 0.096765 
0.080440 0.002075 0.098656 
0.080593 0.001740 0.096780 
0.080886 0.003820 0.096733 
0.080848 0.003348 0.098636 
0.080354 0.002399 0.100470 
0.080943 0.004528 0.098600 
0.080880 0.003892 0.100447 
0.080161 0.000640 0.096785 
0.081079 0.005252 0.100407 
0.081203 0.005900 0.102402 
0.080913 0.004377 0.102442 
0.080281 0.002688 0.102467 
0.079530 0.000895 0.102476 
0.079702 0.000826 0.100478 
0.079901 0.000745 0.098663 
0.080891 0.004755 0.104807 
0.080067 0.003095 0.107493 
0.080182 0.002920 0.104831 
0.081248 0.006400 0.104768 
0.080826 0.005029 0.107474 
0.079959 0.003218 0.110323 
0.081228 0.006756 0.107439 
0.080748 0.005213 0.110310 
0.079357 0.000965 0.104838 
0.081021 0.007782 0.104713 
0.081031 0.008199 0.107385 
0.081177 0.006992 0.110280 
0.081000 0.008473 0.110229 
0.081131 0.007131 0.113161 
0.080686 0.005323 0.113184 
0.079880 0.003293 0.113191 
0.078961 0.001126 0.113191 
0.079055 0.001087 0.110326 
0.079193 0.001032 0.107498 
0.079848 0.003325 0.115981 
0.080654 0.005348 0.118646 
0.079846 0.003313 0.118640 
0.080661 0.005369 0.115981 
0.081102 0.007161 0.118635 
0.080641 0.005253 0.121139 
0.079856 0.003257 0.121130 
0.081068 0.007035 0.121132 
0.078921 0.001142 0.115978 
0.081112 0.007189 0.115965 
0.080981 0.006798 0.123416 
0.080593 0.005076 0.123421 
0.079854 0.003155 0.123411 
0.078956 0.001128 0.121123 
0.078996 0.001112 0.123403 
0.078925 0.001140 0.118635 
0.079826 0.003009 0.125453 
0.080357 0.004490 0.127264 
0.079780 0.002829 0.127259 
0.080493 0.004816 0.125462 
0.080605 0.006004 0.127254 
0.080207 0.004123 0.128839 
0.079728 0.002627 0.128838 
0.080370 0.005503 0.128824 
0.079033 0.001097 0.125446 
0.080819 0.006447 0.125455 
0.080149 0.004974 0.130179 
0.080068 0.003737 0.130198 
0.079684 0.002414 0.130201 
0.079105 0.001067 0.128835 
0.079152 0.001048 0.130200 
0.079067 0.001083 0.127253 
0.079641 0.002211 0.131355 
0.079735 0.003060 0.132277 
0.079503 0.002067 0.132292 
0.079940 0.003363 0.131348 
0.079694 0.004014 0.132238 
0.079340 0.002894 0.132972 
0.079154 0.002039 0.133002 
0.079285 0.003719 0.132897 
0.079191 0.001032 0.131355 
0.079950 0.004457 0.131324 
0.078835 0.001177 0.133006 
0.079125 0.001059 0.132293 
0.077096 0.010173 0.104492 
0.078666 0.010095 0.107231 
0.078648 0.009630 0.104565 
0.077078 0.010951 0.109978 
0.077102 0.010640 0.107151 
0.080093 0.009300 0.107312 
0.080072 0.008849 0.104642 
0.080071 0.009598 0.110154 
0.078645 0.010404 0.110065 
0.091230 0.004365 -0.048373 
0.091829 0.004353 -0.043230 
0.092491 0.003706 -0.048276 
0.090567 0.005020 -0.043327 
0.091158 0.004902 -0.038046 
0.093003 0.003453 -0.043132 
0.093668 0.002822 -0.048179 
0.092332 0.003988 -0.037948 
0.089895 0.005575 -0.038143 
0.082142 -0.004553 0.023660 
0.082564 -0.003535 0.021828 
0.082084 -0.004679 0.021831 
0.082606 -0.003446 0.023658 
0.083114 -0.002209 0.021826 
0.082506 -0.003635 0.019708 
0.082008 -0.004823 0.019712 
0.083078 -0.002258 0.019705 
0.081840 -0.005282 0.025068 
0.081786 -0.005399 0.023662 
0.082188 -0.004458 0.025066 
0.082639 -0.003380 0.025064 
0.083138 -0.002164 0.023656 
0.083157 -0.002130 0.025063 
0.083023 -0.002305 0.017430 
0.082428 -0.003737 0.017434 
0.081909 -0.004973 0.017438 
0.081625 -0.005732 0.019716 
0.081510 -0.005917 0.017443 
0.081715 -0.005554 0.021834 
0.082282 -0.004377 0.026636 
0.082694 -0.003327 0.026436 
0.082254 -0.004378 0.026437 
0.082720 -0.003329 0.026635 
0.083199 -0.002109 0.026435 
0.082668 -0.003341 0.025959 
0.082224 -0.004402 0.025960 
0.083177 -0.002113 0.025958 
0.081971 -0.005188 0.026699 
0.081944 -0.005178 0.026637 
0.082308 -0.004387 0.026698 
0.082747 -0.003339 0.026698 
0.083223 -0.002114 0.026635 
0.083250 -0.002124 0.026697 
0.081883 -0.005212 0.025961 
0.081916 -0.005182 0.026438 
0.082788 -0.003357 0.027700 
0.082352 -0.004406 0.027042 
0.082349 -0.004406 0.027700 
0.083291 -0.002142 0.027701 
0.082791 -0.003358 0.027042 
0.082335 -0.004399 0.026773 
0.083294 -0.002143 0.027042 
0.082773 -0.003350 0.026772 
0.082315 -0.004392 0.028938 
0.082012 -0.005208 0.027700 
0.081978 -0.005194 0.028938 
0.082754 -0.003343 0.028939 
0.083258 -0.002128 0.028939 
0.083276 -0.002135 0.026772 
0.081998 -0.005200 0.026773 
0.082015 -0.005208 0.027043 
0.082118 -0.004301 0.033422 
0.082679 -0.003312 0.030887 
0.082240 -0.004361 0.030886 
0.081946 -0.004205 0.036365 
0.082557 -0.003256 0.033424 
0.083182 -0.002098 0.030887 
0.082382 -0.003166 0.036367 
0.083059 -0.002044 0.033425 
0.081902 -0.005162 0.030885 
0.081781 -0.005101 0.033421 
0.081610 -0.004999 0.036363 
0.081387 -0.004845 0.039528 
0.081719 -0.004061 0.039531 
0.082151 -0.003036 0.039534 
0.082882 -0.001963 0.036369 
0.082645 -0.001848 0.039536 
0.081785 -0.005116 0.015115 
0.082198 -0.003915 0.012728 
0.081638 -0.005248 0.012735 
0.082325 -0.003831 0.015110 
0.082840 -0.002371 0.012723 
0.082051 -0.003985 0.010252 
0.081471 -0.005364 0.010259 
0.082716 -0.002388 0.010247 
0.081370 -0.006097 0.015121 
0.082943 -0.002343 0.015106 
0.082574 -0.002392 0.007638 
0.081888 -0.004039 0.007644 
0.081288 -0.005460 0.007651 
0.081024 -0.006417 0.010267 
0.080827 -0.006545 0.007659 
0.081206 -0.006266 0.012742 
0.081095 -0.005533 0.004886 
0.081533 -0.004095 0.001973 
0.080901 -0.005587 0.001980 
0.081712 -0.004075 0.004878 
0.082256 -0.002367 0.001968 
0.081360 -0.004105 -0.001041 
0.080715 -0.005624 -0.001034 
0.082098 -0.002343 -0.001045 
0.080620 -0.006648 0.004894 
0.082418 -0.002384 0.004873 
0.081954 -0.002319 -0.004138 
0.081204 -0.004106 -0.004134 
0.080547 -0.005649 -0.004129 
0.080217 -0.006785 -0.001027 
0.080040 -0.006827 -0.004123 
0.080414 -0.006727 0.001988 
0.080409 -0.005665 -0.007283 
0.080990 -0.004109 -0.010510 
0.080317 -0.005682 -0.010508 
0.081075 -0.004105 -0.007287 
0.081759 -0.002286 -0.010511 
0.080968 -0.004126 -0.013825 
0.080289 -0.005708 -0.013825 
0.081742 -0.002292 -0.013824 
0.079895 -0.006857 -0.007279 
0.081835 -0.002297 -0.007289 
0.081803 -0.002325 -0.017250 
0.081026 -0.004166 -0.017252 
0.080344 -0.005753 -0.017253 
0.079765 -0.006918 -0.013824 
0.079817 -0.006967 -0.017254 
0.079797 -0.006884 -0.010505 
0.081183 -0.004234 -0.020824 
0.080774 -0.005921 -0.024630 
0.080499 -0.005824 -0.020827 
0.081961 -0.002392 -0.020822 
0.081455 -0.004335 -0.024626 
0.081185 -0.006043 -0.028757 
0.082232 -0.002496 -0.024623 
0.081862 -0.004468 -0.028753 
0.079971 -0.007039 -0.020829 
0.082632 -0.002642 -0.028749 
0.083177 -0.002832 -0.033296 
0.082419 -0.004633 -0.033300 
0.081753 -0.006188 -0.033305 
0.081239 -0.007377 -0.033309 
0.080663 -0.007247 -0.028761 
0.080247 -0.007134 -0.024633 
0.083131 -0.004828 -0.038294 
0.083320 -0.006496 -0.043482 
0.082481 -0.006349 -0.038298 
0.083871 -0.003064 -0.038290 
0.083947 -0.005022 -0.043477 
0.084205 -0.006591 -0.048529 
0.084662 -0.003314 -0.043474 
0.084803 -0.005182 -0.048525 
0.081979 -0.007513 -0.038303 
0.085485 -0.003551 -0.048521 
0.086275 -0.003745 -0.053106 
0.085635 -0.005275 -0.053110 
0.085075 -0.006597 -0.053114 
0.084643 -0.007608 -0.053117 
0.083744 -0.007668 -0.048533 
0.082835 -0.007624 -0.043486 
0.086386 -0.005278 -0.056961 
0.086559 -0.006294 -0.059981 
0.085870 -0.006490 -0.056958 
0.086975 -0.003873 -0.056960 
0.087032 -0.005210 -0.060031 
0.087114 -0.006057 -0.062172 
0.087570 -0.003945 -0.060053 
0.087556 -0.005108 -0.062339 
0.085475 -0.007416 -0.056957 
0.088049 -0.003980 -0.062411 
0.088407 -0.003998 -0.064070 
0.087942 -0.005022 -0.063941 
0.087504 -0.005876 -0.063617 
0.087179 -0.006426 -0.063213 
0.086794 -0.006747 -0.062056 
0.086202 -0.007115 -0.059951 
0.082345 -0.001698 0.042754 
0.081522 -0.002668 0.045896 
0.081997 -0.001527 0.045898 
0.081860 -0.002863 0.042751 
0.081107 -0.003653 0.045892 
0.081149 -0.002479 0.048852 
0.081618 -0.001354 0.048856 
0.080739 -0.003450 0.048848 
0.081437 -0.003868 0.042748 
0.081111 -0.004636 0.042745 
0.080787 -0.004405 0.045888 
0.080424 -0.004191 0.048844 
0.080030 -0.004036 0.051499 
0.080346 -0.003294 0.051504 
0.080756 -0.002323 0.051508 
0.081226 -0.001197 0.051512 
0.080354 -0.002217 0.053790 
0.080445 -0.000957 0.055788 
0.080834 -0.001067 0.053794 
0.079935 -0.003209 0.053785 
0.079950 -0.002144 0.055783 
0.080059 -0.000849 0.057618 
0.079518 -0.003168 0.055777 
0.079548 -0.002074 0.057613 
0.079613 -0.003966 0.053779 
0.079185 -0.003950 0.055771 
0.079101 -0.003132 0.057607 
0.078757 -0.003940 0.057601 
0.078693 -0.003064 0.059400 
0.079151 -0.001982 0.059406 
0.079674 -0.000728 0.059411 
0.079290 -0.000583 0.061262 
0.078387 -0.001663 0.063148 
0.078909 -0.000413 0.063152 
0.078763 -0.001844 0.061258 
0.077930 -0.002740 0.063142 
0.078025 -0.001444 0.065027 
0.078536 -0.000225 0.065031 
0.077578 -0.002496 0.065022 
0.078341 -0.003890 0.059393 
0.078302 -0.002933 0.061251 
0.077578 -0.003564 0.063136 
0.077233 -0.003299 0.065016 
0.076915 -0.002981 0.066836 
0.077248 -0.002208 0.066841 
0.077679 -0.001196 0.066846 
0.078172 -0.000021 0.066849 
0.077819 0.000192 0.068575 
0.077022 -0.000641 0.070245 
0.077467 0.000413 0.070247 
0.077349 -0.000925 0.068572 
0.076633 -0.001550 0.070242 
0.076683 -0.000354 0.071922 
0.077102 0.000638 0.071924 
0.076315 -0.001209 0.071919 
0.076938 -0.001888 0.068568 
0.076620 -0.002623 0.068563 
0.076331 -0.002243 0.070238 
0.076030 -0.001861 0.071917 
0.075697 -0.001497 0.073657 
0.075968 -0.000880 0.073659 
0.076317 -0.000073 0.073661 
0.076714 0.000864 0.073662 
0.076290 0.001089 0.075520 
0.075466 0.000457 0.077560 
0.075832 0.001317 0.077560 
0.075910 0.000195 0.075519 
0.075143 -0.000283 0.077559 
0.074987 0.000726 0.079847 
0.075341 0.001554 0.079847 
0.074675 0.000012 0.079847 
0.075576 -0.000575 0.075517 
0.075317 -0.001163 0.075516 
0.074893 -0.000848 0.077558 
0.074432 -0.000533 0.079847 
0.073944 -0.000197 0.082446 
0.074178 0.000326 0.082446 
0.074479 0.001011 0.082446 
0.074820 0.001806 0.082446 
0.074275 0.002071 0.085370 
0.073407 0.001589 0.088440 
0.073725 0.002324 0.088439 
0.073948 0.001313 0.085371 
0.073125 0.000957 0.088441 
0.073193 0.002529 0.091422 
0.072870 0.001787 0.091423 
0.073659 0.000659 0.085371 
0.073433 0.000161 0.085372 
0.072905 0.000474 0.088442 
0.072584 0.001148 0.091424 
0.072360 0.000661 0.091425 
0.072043 0.001162 0.094090 
0.072353 0.001852 0.094089 
0.072701 0.002654 0.094088 
0.071867 0.001752 0.096285 
0.071889 0.002623 0.098174 
0.072268 0.002676 0.096284 
0.071512 0.000957 0.096287 
0.071420 0.001534 0.098176 
0.071559 0.002534 0.099999 
0.071005 0.000596 0.098177 
0.071015 0.001266 0.100001 
0.071802 0.000636 0.094091 
0.071236 0.000349 0.096288 
0.070681 -0.000120 0.098179 
0.070534 0.000174 0.100003 
0.070161 -0.000661 0.100004 
0.070117 -0.000218 0.102004 
0.070657 0.001016 0.102002 
0.071270 0.002447 0.102001 
0.070351 0.000835 0.104360 
0.070804 0.002368 0.107006 
0.071016 0.002393 0.104358 
0.069765 -0.000507 0.104362 
0.070102 0.000722 0.107007 
0.070642 0.002361 0.109816 
0.069484 -0.000697 0.107009 
0.069917 0.000656 0.109818 
0.069698 -0.001161 0.102006 
0.069311 -0.001533 0.104363 
0.069005 -0.001783 0.107011 
0.069278 -0.000814 0.109820 
0.068783 -0.001938 0.109822 
0.069150 -0.000880 0.112665 
0.069800 0.000620 0.112663 
0.070539 0.002359 0.112661 
0.070502 0.002355 0.115429 
0.069781 0.000600 0.118072 
0.070524 0.002351 0.118070 
0.069757 0.000599 0.115431 
0.069128 -0.000910 0.118074 
0.069865 0.000633 0.120548 
0.070595 0.002357 0.120546 
0.069223 -0.000854 0.120550 
0.068646 -0.002027 0.112667 
0.069102 -0.000915 0.115434 
0.068623 -0.002066 0.118076 
0.068727 -0.001991 0.120552 
0.068898 -0.001834 0.122828 
0.069379 -0.000732 0.122826 
0.070001 0.000708 0.122824 
0.070708 0.002378 0.122822 
0.070853 0.002422 0.124869 
0.070391 0.001005 0.126689 
0.071019 0.002487 0.126687 
0.070180 0.000834 0.124871 
0.069838 -0.000273 0.126691 
0.070621 0.001216 0.128283 
0.071196 0.002572 0.128281 
0.070114 0.000047 0.128285 
0.069589 -0.000537 0.124873 
0.069131 -0.001585 0.124875 
0.069410 -0.001251 0.126693 
0.069721 -0.000848 0.128287 
0.070049 -0.000390 0.129663 
0.070402 0.000412 0.129661 
0.070858 0.001460 0.129659 
0.071375 0.002675 0.129657 
0.071546 0.002792 0.130821 
0.071304 0.001992 0.131765 
0.071701 0.002911 0.131772 
0.071090 0.001726 0.130822 
0.070954 0.001200 0.131750 
0.071489 0.002230 0.132487 
0.071834 0.003020 0.132509 
0.071183 0.001553 0.132435 
0.070687 0.000807 0.130822 
0.070376 0.000105 0.130822 
0.070686 0.000602 0.131742 
0.070957 0.001059 0.132399 
0.071146 0.001391 0.132764 
0.071347 0.001803 0.132892 
0.071630 0.002408 0.132994 
0.071939 0.003103 0.133035 
0.073212 -0.000384 0.085375 
0.072824 -0.000108 0.088456 
0.072684 -0.000051 0.088445 
0.073355 -0.000441 0.085386 
0.073196 -0.000261 0.088483 
0.072268 0.000073 0.091440 
0.072131 0.000130 0.091429 
0.072639 -0.000082 0.091466 
0.073691 -0.000759 0.082446 
0.073187 -0.000374 0.085373 
0.073718 -0.000769 0.082449 
0.073865 -0.000828 0.082460 
0.073732 -0.000594 0.085413 
0.074246 -0.000983 0.082487 
0.074457 -0.000889 0.085464 
0.073917 -0.000557 0.088534 
0.073358 -0.000384 0.091516 
0.072777 -0.000475 0.094178 
0.072057 -0.000158 0.094131 
0.071686 0.000004 0.094105 
0.071550 0.000064 0.094095 
0.072111 0.000138 0.091427 
0.071531 0.000071 0.094093 
0.072662 -0.000043 0.088443 
0.081858 -0.006143 0.026793 
0.081712 -0.006086 0.027050 
0.081695 -0.006078 0.026780 
0.082263 -0.006308 0.026823 
0.081875 -0.006151 0.027062 
0.081708 -0.006085 0.027706 
0.082279 -0.006316 0.027092 
0.081871 -0.006151 0.027718 
0.081669 -0.006066 0.026707 
0.081655 -0.006064 0.026777 
0.081629 -0.006052 0.026703 
0.081833 -0.006131 0.026719 
0.082237 -0.006296 0.026750 
0.083000 -0.006608 0.026808 
0.083024 -0.006620 0.026881 
0.083040 -0.006627 0.027150 
0.082275 -0.006315 0.027749 
0.083036 -0.006626 0.027806 
0.082240 -0.006302 0.028985 
0.081837 -0.006137 0.028955 
0.081674 -0.006072 0.028942 
0.081634 -0.006058 0.028940 
0.081669 -0.006072 0.027703 
0.081672 -0.006072 0.027046 
0.068776 -0.002799 0.124893 
0.068951 -0.002315 0.126698 
0.068640 -0.002726 0.124880 
0.069154 -0.003002 0.124927 
0.069084 -0.002382 0.126710 
0.069301 -0.001821 0.128291 
0.069454 -0.002569 0.126742 
0.069431 -0.001882 0.128303 
0.068384 -0.003035 0.122832 
0.068625 -0.002717 0.124878 
0.068369 -0.003026 0.122830 
0.068522 -0.003113 0.122846 
0.068906 -0.003330 0.122880 
0.069660 -0.003755 0.122947 
0.069896 -0.003400 0.124992 
0.070182 -0.002935 0.126805 
0.069794 -0.002053 0.128333 
0.070507 -0.002387 0.128392 
0.070158 -0.001476 0.129707 
0.069801 -0.001319 0.129678 
0.069673 -0.001263 0.129667 
0.069659 -0.001257 0.129665 
0.069286 -0.001814 0.128289 
0.068937 -0.002307 0.126696 
0.080826 -0.005479 0.042741 
0.080684 -0.005300 0.045894 
0.080513 -0.005231 0.045883 
0.080994 -0.005547 0.042753 
0.081099 -0.005469 0.045923 
0.080332 -0.005076 0.048848 
0.080158 -0.005007 0.048837 
0.080751 -0.005247 0.048877 
0.081052 -0.005690 0.039524 
0.080784 -0.005465 0.042739 
0.081093 -0.005704 0.039526 
0.081259 -0.005770 0.039538 
0.081406 -0.005714 0.042781 
0.081667 -0.005937 0.039567 
0.082177 -0.006030 0.042836 
0.081876 -0.005787 0.045977 
0.081533 -0.005568 0.048931 
0.081153 -0.005419 0.051584 
0.080366 -0.005096 0.051531 
0.079943 -0.004924 0.051502 
0.079767 -0.004853 0.051491 
0.080112 -0.004991 0.048835 
0.079720 -0.004837 0.051489 
0.080469 -0.005216 0.045880 
0.081743 -0.006166 0.025984 
0.081613 -0.006062 0.026447 
0.081578 -0.006100 0.025972 
0.082150 -0.006332 0.026015 
0.081778 -0.006128 0.026459 
0.081642 -0.006056 0.026645 
0.082184 -0.006294 0.026490 
0.081807 -0.006122 0.026658 
0.081531 -0.006184 0.025079 
0.081537 -0.006086 0.025968 
0.081490 -0.006170 0.025076 
0.081697 -0.006251 0.025092 
0.082105 -0.006417 0.025124 
0.082871 -0.006731 0.025182 
0.082914 -0.006645 0.026074 
0.082947 -0.006606 0.026548 
0.082212 -0.006287 0.026688 
0.082974 -0.006599 0.026746 
0.081602 -0.006042 0.026642 
0.081573 -0.006048 0.026443 
0.079918 -0.008118 -0.000983 
0.079963 -0.007970 0.002021 
0.079750 -0.008051 -0.000997 
0.080328 -0.008286 -0.000952 
0.080135 -0.008039 0.002035 
0.080187 -0.007865 0.004927 
0.080550 -0.008209 0.002067 
0.080361 -0.007935 0.004941 
0.079557 -0.008111 -0.004096 
0.079708 -0.008037 -0.001002 
0.079518 -0.008098 -0.004100 
0.079720 -0.008176 -0.004083 
0.080124 -0.008342 -0.004052 
0.080885 -0.008654 -0.003994 
0.081098 -0.008602 -0.000893 
0.081327 -0.008529 0.002127 
0.080780 -0.008106 0.004974 
0.081562 -0.008428 0.005035 
0.081007 -0.007975 0.007740 
0.080585 -0.007802 0.007707 
0.080409 -0.007732 0.007692 
0.080362 -0.007716 0.007686 
0.080140 -0.007850 0.004921 
0.079919 -0.007956 0.002015 
0.075083 -0.001809 0.075516 
0.074816 -0.001530 0.077570 
0.074662 -0.001468 0.077559 
0.075240 -0.001872 0.075527 
0.075208 -0.001690 0.077597 
0.074354 -0.001190 0.079859 
0.074204 -0.001129 0.079848 
0.074741 -0.001347 0.079887 
0.075420 -0.002161 0.073652 
0.075048 -0.001796 0.075513 
0.075457 -0.002174 0.073655 
0.075618 -0.002238 0.073666 
0.075637 -0.002034 0.075554 
0.076020 -0.002402 0.073694 
0.076390 -0.002341 0.075606 
0.075954 -0.001993 0.077649 
0.075480 -0.001648 0.079938 
0.074978 -0.001280 0.082539 
0.074175 -0.001119 0.079846 
0.074630 -0.001457 0.077556 
0.086647 -0.007428 -0.062424 
0.086029 -0.008051 -0.060052 
0.085900 -0.007998 -0.060061 
0.086777 -0.007481 -0.062414 
0.086380 -0.008193 -0.060027 
0.085210 -0.008482 -0.056960 
0.085081 -0.008430 -0.056969 
0.085562 -0.008625 -0.056935 
0.087292 -0.006721 -0.064090 
0.086624 -0.007418 -0.062426 
0.087317 -0.006732 -0.064087 
0.087449 -0.006785 -0.064077 
0.087128 -0.007622 -0.062389 
0.087799 -0.006926 -0.064052 
0.087810 -0.007899 -0.062341 
0.087065 -0.008470 -0.059978 
0.086249 -0.008903 -0.056886 
0.085366 -0.009186 -0.053034 
0.084677 -0.008907 -0.053084 
0.084325 -0.008764 -0.053109 
0.084197 -0.008713 -0.053118 
0.085062 -0.008423 -0.056971 
0.084179 -0.008706 -0.053119 
0.085879 -0.007990 -0.060064 
0.068194 -0.003418 0.115451 
0.068085 -0.003325 0.118080 
0.068054 -0.003335 0.115439 
0.068586 -0.003650 0.115481 
0.068225 -0.003408 0.118092 
0.068197 -0.003231 0.120556 
0.068615 -0.003638 0.118124 
0.068336 -0.003313 0.120569 
0.068110 -0.003277 0.112670 
0.068038 -0.003325 0.115437 
0.068094 -0.003267 0.112669 
0.068250 -0.003361 0.112681 
0.068642 -0.003593 0.112708 
0.069411 -0.004048 0.112760 
0.069354 -0.004104 0.115538 
0.069382 -0.004089 0.118187 
0.068724 -0.003538 0.120603 
0.069486 -0.003980 0.120669 
0.068181 -0.003221 0.120554 
0.068069 -0.003315 0.118077 
0.080799 -0.007638 0.010312 
0.080821 -0.007379 0.012770 
0.080623 -0.007568 0.010297 
0.081221 -0.007811 0.010346 
0.080997 -0.007449 0.012785 
0.081000 -0.007171 0.015147 
0.081418 -0.007622 0.012818 
0.081174 -0.007241 0.015161 
0.080575 -0.007552 0.010292 
0.081792 -0.008298 0.007801 
0.082007 -0.008135 0.010407 
0.082203 -0.007944 0.012880 
0.081594 -0.007412 0.015194 
0.082376 -0.007734 0.015256 
0.081745 -0.007190 0.017512 
0.081328 -0.007019 0.017480 
0.081155 -0.006950 0.017465 
0.081110 -0.006935 0.017460 
0.080953 -0.007155 0.015141 
0.080774 -0.007363 0.012764 
0.088902 -0.004068 -0.065808 
0.088567 -0.005081 -0.065611 
0.088434 -0.005027 -0.065622 
0.089035 -0.004122 -0.065798 
0.088915 -0.005222 -0.065587 
0.088042 -0.005977 -0.065094 
0.087910 -0.005924 -0.065104 
0.088391 -0.006118 -0.065069 
0.088871 -0.004055 -0.065813 
0.089383 -0.004263 -0.065773 
0.090058 -0.004536 -0.065726 
0.089591 -0.005496 -0.065540 
0.089069 -0.006393 -0.065022 
0.088479 -0.007202 -0.064004 
0.087882 -0.005912 -0.065108 
0.088404 -0.005015 -0.065626 
